# .PCD v0.7 - Point Cloud Data file format
VERSION 0.7
FIELDS x y z
SIZE 4 4 4
TYPE F F F
COUNT 1 1 1
WIDTH 1453
HEIGHT 1
VIEWPOINT 0 0 0 0.707107 -0.707107 0 0
POINTS 1453
DATA ascii
3.6956229 -1.7746688 -1.0367627
6.8947811 -4.7717113 -1.4972745
3.5862072 -1.7463284 -1.184395
3.6533267 -1.8202318 -1.0975449
3.2743592 -1.4612252 -1.3217734
3.6686356 -7.9569707 -1.0657229
2.8541393 -8.4822826 -1.5357962
2.9047694 -8.8521595 -1.3945751
-0.67594379 1.4383152 -0.001114002
4.4489875 -1.4514705 0.18271223
4.5020976 -1.7182413 -1.2503722
4.7190723 -2.2532334 -1.4813561
3.6227343 -1.7255564 -1.0193008
3.5899994 -1.7364123 -1.2196937
5.72157 -6.3994126 0.021041492
5.558629 -6.60219 0.53886819
4.0087399 -4.2562361 -0.27885818
3.9421616 -4.1557803 -0.26956597
3.8764255 -4.0570774 -0.26045281
3.8148818 -3.9651415 -0.25198126
3.0865946 -8.5241327 -1.3618244
-1.1215557 -2.9137108 -0.8497721
-2.4122529 -2.3441188 -0.69673038
0.72775477 -0.51844692 -0.71849352
0.6496771 -0.5177989 -0.8200348
0.58203787 -0.50713378 -0.5962593
0.64255542 -0.50006223 -0.82253724
0.24684414 -0.50106305 -1.2453394
0.54598969 -0.38623747 -0.52938873
0.4506076 -0.40452722 -0.57687032
0.43447733 -0.40263194 -0.58686775
0.44572625 -0.39488307 -0.58102733
0.38509843 -0.40321741 -0.61119807
-0.92593044 -0.52655458 -1.3522257
-0.86087358 -0.50568408 -1.3174685
-1.0582007 -0.43212181 -1.4262609
-1.0469714 -0.42010668 -1.4202192
-1.2062851 -0.25286102 -1.5181537
-0.17845611 -0.13419729 -1.5260864
7.0975885 -5.0346794 -0.24250871
7.4063239 -5.5011392 -0.27453315
7.5867686 -5.7832394 -0.30120742
6.3664036 -6.1234837 -0.027420416
6.0652728 -5.7541203 -0.019814029
5.5515966 -6.5828338 0.53839594
5.5467653 -6.5387583 0.19326283
3.945709 -4.1555357 -0.3048262
3.8856692 -4.0650887 -0.29706678
3.8270226 -3.9829218 -0.2848357
3.7648516 -3.8867667 -0.27651531
3.8733292 -7.7455649 -1.0172285
3.6848547 -8.3024139 -1.3903199
3.1275692 -8.7425261 -0.97040921
3.1004932 -8.7413187 -0.97829306
3.0740118 -8.7339888 -0.98497236
1.9484766 -4.7459435 0.29967204
-0.84829962 -3.43084 -0.81626707
-1.0686549 -2.9748402 -0.84759629
-2.4892409 -1.666648 -0.73498851
0.55667925 -0.55863208 -0.35605374
0.71869868 -0.52779055 -0.67426687
0.70987904 -0.51217359 -0.68280834
0.26599342 -0.75363106 -1.5937659
0.70713109 -0.4461399 -0.78700656
0.0021016535 -0.77888721 -1.6091143
-1.9776039 -0.95922124 -1.0603404
0.25998893 -0.66238111 -1.4420166
0.55617505 -0.36645058 -0.51138866
0.49856704 -0.37770247 -0.54198402
0.4032647 -0.39862862 -0.59323037
0.14344101 -0.57780898 -1.5796205
-0.97206926 -0.4241108 -1.3775403
-1.0002491 -0.41786817 -1.3949963
-1.0160962 -0.3149417 -1.4282619
-0.30149317 -0.096428737 -1.6028334
0.230967 0.24445616 -1.203094
0.86012375 2.3728635 -1.4947779
0.86325705 2.3902285 -1.5013177
0.87351543 2.3905017 -1.4959193
4.2199965 -1.1397473 0.53247005
7.1206274 -5.1112494 -0.17993142
7.1623592 -5.1798868 -0.18567151
6.9695983 -5.2574973 -0.19823781
7.3190632 -5.6502256 -0.22633229
7.5676866 -5.9759927 -0.25208077
5.7522411 -6.4277754 0.054656222
3.9904344 -4.2176781 -0.22558098
3.9319496 -4.1307216 -0.22101104
3.8747349 -4.0497751 -0.21358491
3.8717945 -8.2403564 -0.95066589
3.0185723 -8.9146757 -0.96116906
2.9967673 -8.9401379 -0.97523314
0.54471105 -0.5537132 -0.35127243
0.12970397 -1.0480446 -1.6498277
0.69877517 -0.49690005 -0.65368658
0.6873706 -0.49775285 -0.66297024
0.66302812 -0.47962427 -0.68816668
0.46372122 -0.40693739 -0.57438117
0.34825638 -0.66876727 -1.2344393
0.21458009 -0.5217284 -0.86684895
0.47392297 -0.35732973 -0.53807282
0.48551524 -0.34895098 -0.53376848
0.35209215 -0.38221636 -0.60331857
0.36752284 -0.70570469 -1.5295323
0.33700189 -0.71428579 -1.5662576
-1.0588195 -0.4274326 -1.4388872
-1.0326254 -0.41278562 -1.4279324
-0.99078822 -0.39589298 -1.4082819
-0.030081905 -0.36279279 -1.5596981
-1.310021 -0.22418495 -1.5578125
-0.075344451 -0.13011207 -1.4386014
0.15386172 0.21796228 -1.174058
-0.53980786 0.61946481 -1.5825355
-0.59396613 0.67578351 -1.5502733
-1.2456348 1.0068685 -1.6463461
-1.2411529 1.0181764 -1.6479542
6.0090127 -6.4134722 0.38357249
3.9815633 -4.1787906 -0.28217569
3.934931 -4.1149354 -0.27851778
3.8697715 -4.0113492 -0.27050501
3.8257561 -3.9505804 -0.2669946
3.7680707 -3.8610003 -0.26037788
3.7262793 -7.9401503 -1.0541433
3.6224203 -7.6668234 -1.2312371
3.7114704 -8.3707981 -1.383285
3.2371311 -8.6505842 -0.95462841
3.209872 -8.6255655 -0.96057403
3.2692573 -8.7579565 -1.424232
0.6431585 -0.9630174 -1.1244849
0.51186889 -0.5174675 -0.36155722
0.69285494 -0.51071936 -0.63551557
0.62122411 -0.49632952 -0.74413794
0.7032811 -0.43046114 -0.69070172
0.51315445 -0.34036404 -0.53750509
0.26028967 -0.46140525 -1.259411
-1.0604972 -0.43078473 -1.453002
-1.0604421 -0.42023811 -1.4562663
-1.0646902 -0.40914854 -1.4598871
-0.051663835 -0.21555467 -1.4719248
-1.1114751 1.0527946 -1.7613864
-1.056278 1.1426071 -1.3830872
-1.0586951 1.1571703 -1.3858831
-0.56991333 0.95863283 -1.7981458
7.0977054 -5.024806 -0.27134851
7.4226284 -5.5534086 -0.51092553
7.0113215 -5.2982612 -1.0065696
6.9752564 -5.3223505 -1.0172522
7.1548524 -5.5758963 -1.0693064
4.9956794 -3.4092021 0.17342174
3.709523 -8.3097115 -1.3832415
3.6776717 -8.2811365 -1.3841014
3.1782632 -8.6051397 -0.94425142
3.1667085 -8.7062197 -0.96423161
3.1361833 -8.6895933 -0.96974194
0.59818029 -0.56833214 -0.39671582
0.68329906 -0.5026207 -0.64032388
0.62455267 -0.47221532 -0.72804338
0.69209665 -0.43963593 -0.68171227
-1.7926379 -1.0738193 -1.0580417
0.67194629 -0.42729148 -0.69632822
0.059897315 -0.71674508 -1.567342
0.17854671 -0.6406011 -1.536414
-3.735806 -0.70933843 -0.83085704
-0.89905161 -0.49517995 -1.3730092
-1.0726221 -0.47421092 -1.4763343
-1.0982391 -0.45623568 -1.4940599
-1.2299433 -0.23123097 -1.5050081
-1.3267714 -0.22804916 -1.5583805
0.64398074 0.095760107 -1.1590451
0.45748478 0.14019072 -1.1660724
0.48503608 0.14381683 -1.1424854
0.32418808 0.16398142 -1.2253834
0.48020792 0.14979492 -1.1485723
0.31935024 0.17057733 -1.2314048
0.47503781 0.16149712 -1.156693
0.43207404 0.17076536 -1.1979041
0.39665231 0.18028158 -1.2324599
0.3934131 0.18627438 -1.2371885
-1.1138229 1.8840482 -0.40113276
4.264173 -1.1622927 0.5610069
7.469882 -5.5842009 -0.27986619
7.073319 -5.3100677 -0.79878181
6.9556346 -5.2622528 -1.4884284
7.1469679 -5.5472355 -1.0147506
5.0293603 -3.4629691 0.28986287
5.6980515 -6.3654904 0.028880848
5.5534263 -6.6002493 0.53501821
4.0120091 -4.2743769 -0.2086011
4.0101519 -4.2471838 -0.31804767
3.950043 -4.1589618 -0.30934566
3.8924251 -4.0761104 -0.30123192
3.0345461 -8.8029413 -1.3626332
-0.99443251 -2.9312737 -1.0031459
-2.2398329 -2.2550473 -0.62697887
0.59544796 -0.45388734 -0.65198427
0.66730398 -0.41477358 -0.69073015
0.58915585 -0.42860427 -0.78327978
0.52849185 -0.44038647 -0.39347163
0.59617937 -0.40616539 -0.77445364
0.64724809 -0.38070682 -0.78322297
0.5497306 -0.38898644 -0.84830749
0.20868938 -0.45646262 -1.0814538
-1.0568805 -0.62311739 -0.71019948
-0.61115599 1.4656314 -0.47820812
4.4508147 -1.6874382 -1.1743869
5.1787815 -2.8927157 -0.73949581
5.2068191 -2.9018545 -1.0629127
5.1443338 -2.8670571 -1.0453534
7.1671071 -5.1680765 -0.85913432
6.9402251 -5.3564477 -1.600419
7.4731998 -6.0135274 -0.82560742
2.7647653 -1.7798074 -1.5791628
2.4266768 -1.4277995 -1.3771917
2.603359 -2.0310593 -1.5730307
2.619487 -2.186861 -1.6181337
3.2217376 -5.5006952 -1.6679306
0.66819644 -0.58201265 -0.53352576
0.67023474 -0.49064255 -0.51831031
0.58102274 -0.51494223 -0.55667299
0.32517213 -0.64314502 -0.069910251
0.22390093 -0.41281173 -0.48525378
1.8437005 2.3317804 0.60464072
4.1334314 -1.2332456 -1.6553613
2.4325061 -1.3178825 -1.5406199
2.4188249 -1.4916414 -1.4067491
2.4015656 -1.6063815 -1.4273731
2.1184328 -1.0387959 -1.2640728
2.4915764 -2.4862969 -1.6302239
1.358713 -0.91508567 -1.2505924
-1.0678786 -2.9438121 -0.9958812
2.122936 -1.1280811 -1.350177
2.1207995 -1.9124596 -1.5621697
1.3730868 -0.80424899 -1.5511281
1.3641284 -0.81089681 -1.5583106
0.82690001 -0.79965407 -1.0496432
0.64296293 -0.92168444 -1.0932454
2.1163046 -1.0802649 -1.2903571
2.1205275 -1.2316346 -1.3981899
1.3502227 -0.82037652 -1.5847359
1.3350624 -0.83304965 -1.605312
1.3384367 -0.82890749 -1.587272
1.344336 -0.82249534 -1.5642637
1.3347692 -0.83005112 -1.5730118
1.350682 -0.81463605 -1.5300962
1.3626617 -0.80280453 -1.4956326
1.34761 -0.89120954 -1.3565083
0.83742368 -0.85577416 -1.0447172
0.64714897 -0.94417959 -1.0981144
-1.1770211 -2.9863079 -0.96547818
-2.3421013 -1.8520586 -0.89829195
-2.4229553 -1.7291515 -0.59198445
-2.2772806 -1.5785991 -0.38476893
2.1236749 -1.9208659 -1.5813094
2.1186547 -1.9273345 -1.5801044
2.1072173 -1.9164898 -1.55619
1.3164779 -0.87017959 -1.5601873
1.2933985 -0.95867366 -1.3428361
-1.1930636 -2.9822397 -1.0861315
-2.3909454 -1.9740092 -0.35294327
2.4299624 -1.3176883 -1.5233537
2.5137503 -1.3542325 -1.4216609
2.4391391 -1.3406763 -1.4739248
2.4496784 -1.4690601 -1.3489479
2.1194856 -1.1093271 -1.3480538
2.0752294 3.4234681 -0.59844512
2.7640018 -1.5290745 -1.5768185
2.5997403 -1.412523 -1.4805474
2.4757183 -1.2940308 -1.3288496
2.4504039 -1.5279928 -1.3884122
2.6270797 -1.9767836 -1.5206443
2.4474752 -1.4385841 -0.80122727
2.45208 -1.4674979 -0.81512082
-1.0802246 -2.8557158 -0.88172299
2.0623479 3.4865401 -0.75617939
2.5229838 -1.3405541 -1.4131823
2.1102152 -1.0210584 -1.2404084
2.5930963 -1.8718864 -1.4338977
2.4695878 -1.9906313 -1.545307
-1.0250119 -2.8989284 -1.0280771
3.5581741 -1.7193402 -1.0663996
2.4677889 -1.3908194 -1.5126787
2.4650898 -1.520503 -0.84075576
-2.3837423 -2.6227882 -0.62998241
-2.2973583 -1.8687479 -0.65152979
4.524209 -1.6657109 -1.1834147
4.4027843 -1.6526026 -1.1321115
5.1540651 -2.8183734 -1.153668
2.6050673 -1.3864362 -1.4760206
3.6765196 -7.863234 -1.6487639
4.0156507 -8.2231455 -0.98630387
-2.3860512 -1.6117493 -0.41692936
-2.7608793 -6.842344e-05 -0.86346
3.6531007 -1.8048518 -1.0957955
6.936522 -4.8215866 -1.4386039
2.7066507 -1.3740082 -1.3552508
2.5905027 -1.3847759 -1.4795144
2.4171336 -1.3765785 -1.3327067
3.3464847 -4.9899325 -1.5488623
-2.3342936 -2.603569 -0.60168272
-0.58989602 1.8340343 -0.36344621
-0.44557649 1.7134342 -0.55569702
4.4493356 -1.6813751 -1.1655694
4.3468165 -1.9263041 -1.4182888
3.6592143 -1.8142003 -1.1544859
2.4460807 -1.5466709 -1.4571455
2.4567332 -1.5352927 -1.3844385
2.5482213 -1.8559276 -1.3107686
3.3092732 -5.091321 -1.4457802
3.6068368 -7.8492951 -1.301669
-1.1600618 -2.9430957 -0.8800512
-2.3135519 -1.5912969 -0.41259095
3.58549 -1.3081539 -1.1378752
4.3580046 -1.9310867 -1.4322678
5.1833949 -2.847369 -0.66818506
2.3799229 -1.5085236 -1.319437
2.6059167 -1.9705449 -1.5780232
2.8466196 -2.2178161 -0.59675318
3.3961914 -5.0672746 -1.5035794
3.3001485 -5.0954275 -1.6116581
3.8189869 -7.5598478 -1.0164243
1.9039266 -4.7998419 0.31593266
-1.1622115 -2.9596591 -0.93152118
-2.509131 -1.6901273 -0.64528978
-2.8723483 -1.5603807 -0.8805815
4.4575868 -1.4332372 -0.69584203
4.4509864 -1.4205251 -0.41481936
3.2769845 -1.4436591 -1.3305264
3.6614215 -1.8109034 -1.0987141
6.9168644 -4.7981772 -1.411255
2.4182637 -1.5937837 -1.4228634
2.5282519 -1.9396706 -1.5200396
3.8844101 -7.6517782 -1.0771728
3.3396456 -8.5282431 -0.97018182
3.3279116 -8.6118031 -0.97231191
-1.9910353 -2.6087167 -1.2362393
-1.9284666 -2.55463 -1.2092162
-2.3527358 -1.8940339 -0.66642219
-2.3433089 -1.7040173 -0.61291033
5.2229671 -2.8648028 -1.10971
2.4355559 -1.4562286 -1.3157091
2.3667855 -1.4975184 -1.2941859
3.774282 -7.8470211 -0.98879993
3.5739975 -7.6586332 -1.2953528
3.6686723 -8.3203583 -1.3969842
3.6628077 -8.4137125 -1.4049881
3.6370025 -8.4310007 -1.3973216
-1.0803736 -2.963156 -0.95144784
4.4436221 -1.8160514 -1.1887957
2.6571553 -1.9541569 -1.5575851
2.5745394 -2.0974987 -1.5903362
3.9929786 -4.2399969 -0.2300373
3.8778596 -7.6289563 -1.0927932
3.3393583 -8.5158815 -0.97461712
3.3163567 -8.5329275 -0.96818137
3.3001153 -8.5991488 -0.96723872
-0.99081773 -2.9605758 -0.90130728
-0.45127481 1.7146521 -0.58352423
4.4698505 -1.4352599 -0.69949186
4.5006237 -1.7081683 -1.1938615
3.5868685 -1.3420864 -1.1360483
5.1338153 -2.4585845 -0.63677961
4.4943304 -2.2273605 -1.3479288
3.7674575 -1.7916486 -1.0448971
2.5795329 -2.0600631 -1.5542543
3.9759121 -4.2121572 -0.20986275
1.2165587 1.5100287 0.42398793
4.5160255 -1.7141351 -1.1883107
4.3190689 -1.889307 -1.1309378
3.792146 -1.7967465 -1.046451
6.6118855 -4.5110316 -1.0825862
2.4805601 -1.3782387 -1.010054
4.0000005 -4.2556748 -0.20605031
3.2676895 -5.0841126 -1.6074964
1.9867059 -4.6626825 0.29581904
-2.0764031 -2.6482627 -1.2574456
-0.55055147 1.8091133 -0.24567257
6.9356947 -4.81285 -1.4405717
2.4181399 -1.4601648 -1.2918618
2.5251093 -2.06006 -1.565441
3.6198595 -7.6602497 -1.4921842
3.6890483 -8.4290237 -1.4024714
-1.9270029 -2.5619874 -1.1924706
-1.8550891 0.60534066 -0.57076013
1.4513025 2.9728971 0.15478034
6.9219089 -4.7990799 -1.4137394
2.5710237 -1.8936236 -1.5386226
3.3472953 -8.6263866 -0.97051972
2.0078015 -4.6606226 0.29921988
-1.0772783 -3.0230284 -0.81387126
-1.1259081 -3.0339575 -0.81372452
-2.2498157 -1.8509301 -0.92640901
-2.4413676 -2.0153313 -0.41691658
-2.2740867 -1.9858762 -0.19054875
0.45822594 -0.41970465 -0.20154212
-1.7494884 0.68676144 -0.52560073
4.2829146 -1.3305042 -0.91218436
4.4914165 -1.4471602 -0.70552915
4.4691954 -2.21929 -1.3347093
3.7543445 -1.78215 -1.0350395
2.4615111 -1.3469065 -1.0291183
2.4691515 -1.5315729 -1.4056334
3.2181869 -4.454843 -1.3290814
3.2904127 -4.9258742 -1.5859985
-1.1757333 -2.9721076 -0.81934744
1.8290766 2.4143841 0.58025694
2.7351668 -1.4123781 -1.4250897
2.5778899 -1.9020692 -1.5625725
2.46666 -1.8679922 -1.4656345
3.3088272 -4.9255605 -1.5580579
3.6064022 -8.3254137 -1.3908843
3.5891631 -8.5188866 -1.4060181
-1.4417051 -3.867146 0.179813
-2.3838849 -2.6274452 -0.54006577
-2.4476986 -1.7340693 -0.61829287
0.29724124 -0.40841815 -0.35080826
5.0982118 -2.8293633 -0.95425826
2.7497451 -1.3318373 -1.3957638
2.67172 -1.3468101 -1.4102668
3.2086344 -8.571394 -0.96691436
3.0559242 -8.5233574 -1.3300709
3.193486 -8.6510553 -0.96758962
-1.0960289 -2.9154208 -1.0005625
-2.2764008 -1.8664832 -0.65557194
4.3150625 -1.9216255 -1.5285882
4.8514838 -2.448108 -1.4896976
5.236742 -2.9014106 -1.1571548
6.8810587 -4.7638841 -1.4615902
6.9280114 -4.837781 -1.4773414
2.4975169 -1.2922035 -1.3794099
2.4299161 -1.33047 -1.3491039
2.4482231 -1.4903466 -1.3548994
2.3994162 -1.4360708 -1.3410494
2.3846071 -1.5581901 -1.3563528
3.6723573 -8.433404 -1.4034598
3.5803893 -8.0519381 -1.1307451
3.0842159 -8.6496344 -0.98497295
3.0683701 -8.7311459 -0.98450857
3.046567 -8.7712955 -0.9789632
-2.2097671 -1.896299 -0.99736756
-2.2720912 -1.8801162 -0.99577457
4.3548484 -1.9366617 -1.4289149
2.5229256 -1.3403828 -1.5097051
3.2678497 -4.8861313 -1.6362115
3.6192889 -7.6880269 -1.5557078
3.5673745 -8.4972353 -1.3903944
3.0100553 -8.8134956 -1.3739899
3.1338384 -8.6570969 -0.9723686
3.1159339 -8.7252932 -0.96715146
-0.96655887 -2.9206972 -0.9039734
-1.8410679 -0.6244427 0.50634456
3.2892702 -1.3486906 -1.4246838
3.5531571 -1.7196648 -0.99792516
2.4739382 -1.3849056 -1.4524652
2.4009805 -1.4388647 -1.3388186
3.2451437 -4.8004045 -1.6450704
3.2840059 -5.0596881 -1.4271429
3.6279218 -8.310976 -1.3797294
3.6292734 -8.4417639 -1.388124
3.2315085 -8.5536413 -0.95483136
4.4776607 -1.498782 -1.1146808
2.5508509 -1.3216048 -1.3785717
3.2094207 -4.4580531 -1.3573071
3.6084261 -7.6377883 -1.5911623
3.5685534 -7.9356556 -1.1575234
3.5468404 -8.5103683 -1.3891706
3.1892695 -8.6833191 -0.96140599
3.5238926 -8.3862906 -0.24135052
2.0212743 -4.7457204 0.31271109
-3.0022526 -1.5179774 -0.28769714
1.1801327 1.5743321 0.54928261
6.9301434 -4.7911396 -1.4423735
6.9207945 -4.8119941 -1.4357922
3.0878258 -8.6479139 -0.96690339
3.0743971 -8.7375517 -0.96236122
3.0613134 -8.7947807 -0.95351672
-0.47204658 1.7201279 -0.51642442
5.1570292 -2.8484108 -1.1413949
5.1938181 -2.9032743 -1.0345464
3.5777185 -1.7419889 -1.0256915
3.5171542 -8.4125547 -1.4060705
3.1406331 -8.7030563 -0.95873421
-0.61370486 1.4806924 -0.52626723
0.86145902 2.415293 -1.4909511
0.87434882 2.4030421 -1.4872667
0.88382447 2.3987935 -1.4884627
4.3946872 -1.688468 -1.161342
4.3737717 -1.8071491 -1.1328043
4.3496261 -1.9395509 -1.3758826
3.5178134 -1.6826887 -1.1674879
2.7626212 -1.3820065 -1.4253447
6.9166756 -4.7765589 -1.3491615
2.6455686 -1.5453353 -1.59183
6.9585705 -5.2799988 -1.4549762
3.6429095 -8.3299532 -1.3702393
3.6420882 -8.4454508 -1.3736714
3.333719 -8.6256618 -0.950077
4.4245677 -1.7776266 -1.1692249
4.3240638 -1.9351082 -1.2666941
3.5608361 -1.7224622 -1.1985686
5.1963091 -2.8938468 -0.6695236
6.9708147 -4.8900285 -1.454336
6.9236307 -5.2873039 -1.5356374
7.164093 -5.1646595 -0.88597661
7.0562773 -5.332027 -0.78655457
3.687536 -7.9039869 -1.6152372
3.6667106 -8.3084249 -1.3839921
3.2770782 -1.4451946 -1.3311379
5.1074533 -3.0417483 -1.4661674
4.9243321 -2.6043589 -0.85715097
6.937716 -4.8034902 -1.4470448
6.9277425 -5.300374 -1.5068369
7.0923166 -5.0511007 -0.25759473
7.259376 -5.6257243 -0.73913163
7.0775681 -5.0605707 -0.246355
2.4584184 -1.352635 -1.0597876
7.345294 -5.7490869 -0.73886925
7.0010266 -5.0740929 -0.20833236
7.5222983 -5.8917966 -0.32839936
3.5833354 -8.5361423 -1.3916032
3.5558419 -8.515728 -1.3731363
1.9011863 -1.3529246 0.5562194
0.21838 2.0640287 -1.490005
3.601336 -1.7655849 -1.0960639
5.0438495 -2.9766994 -1.4192996
5.211813 -2.8776257 -1.1562517
7.2997298 -5.6984673 -0.75306064
7.0707278 -5.0184417 -0.27823162
7.0010324 -5.054213 -0.22189644
3.3127413 -5.0509353 -1.4535151
5.5867996 -6.628727 0.51728821
1.9021643 -1.3330911 0.52040887
0.88763314 -1.3589303 0.089698605
-0.36319569 1.6450319 -0.33699852
0.43203837 1.6372663 -1.5473411
0.43799332 1.5637076 -1.5485395
1.4152211 3.3895876 -1.2695849
2.447288 -1.3473407 -1.5490676
2.421778 -1.5044868 -1.3339382
2.6537559 -2.0225549 -1.5777541
2.9322937 -2.5456526 -1.6194435
5.2420907 -2.9572906 -1.2595534
5.3301868 -3.047313 -1.2760403
5.2724042 -3.0060663 -1.2444267
5.2117944 -2.9619162 -1.2122979
5.0747132 -2.8888571 -1.1082758
5.2581677 -2.9560761 -1.0541421
5.2608199 -2.9689462 -1.0422326
5.2818437 -3.0095229 -1.0217113
5.2670341 -3.0061746 -1.0057896
5.1909204 -2.9476376 -0.9737252
5.1672449 -2.9364388 -0.95530242
6.3491306 -4.5834556 -1.5364861
5.1855111 -2.964005 -0.94670159
5.1808414 -2.969568 -0.9336918
5.1319532 -2.9452374 -0.8970691
6.9622006 -4.8541908 -1.4185456
5.0838351 -2.9104087 -0.87414819
3.5977986 -1.8015814 -0.60003668
6.9585485 -5.2312469 -1.332574
5.2713766 -3.0764155 -0.69484752
5.265687 -3.0782413 -0.68407798
5.1394706 -2.9714158 -0.65053493
7.0142717 -5.209178 -0.68593585
7.1136503 -5.5783677 -0.75255603
7.4284582 -5.6830239 -0.24800724
7.3433719 -5.6128211 -0.22257222
6.9699912 -5.2426176 -0.19306599
6.935565 -5.2233019 -0.17073855
5.7698479 -6.4691854 0.054486096
3.6032121 -8.4490433 -0.93202919
1.8925675 -1.2983853 0.49860585
-0.66716665 1.4528726 -0.10727222
-0.51839423 1.7534817 -0.35778806
-0.37250644 1.6548066 -0.35225937
-0.63398468 1.4868466 -0.52769238
-0.71232206 1.0693916 -1.2255578
-0.47249448 1.2577707 -1.3053195
0.24272439 2.0775397 -1.3457006
0.22077517 0.82111531 -1.4233235
0.14399816 0.79863268 -1.4761468
0.43495756 1.5450491 -1.5453997
2.5182657 -1.3965048 -1.4799613
2.5278254 -1.415995 -1.4876378
2.8928201 -1.6151489 -1.5835429
2.4046857 -1.5222318 -1.297514
3.2787962 -1.4786462 -1.0869683
4.4574251 -1.6485554 -1.1396539
5.2790475 -3.0126789 -1.2999238
5.3063645 -3.0427577 -1.2941109
5.3003592 -3.043165 -1.2768583
5.2957759 -3.0445333 -1.2609001
5.3066425 -3.0581181 -1.2471144
5.3077641 -3.0646663 -1.2328815
5.313169 -3.0754158 -1.21909
5.2939658 -3.0634949 -1.1989044
5.2703686 -3.047817 -1.1768097
5.2771058 -3.0597517 -1.163475
5.2418714 -3.0333323 -1.1384122
5.218205 -3.017096 -1.1176037
5.126544 -2.9386978 -1.0778672
5.2249608 -3.0404394 -1.0742724
5.1491637 -2.975949 -1.0405202
5.1334386 -2.9649181 -1.0210108
5.1081457 -2.9468203 -1.0008212
5.3860593 -3.0522597 -1.0203745
5.1469207 -2.9939094 -0.98094487
5.3619766 -3.0771191 -0.89253736
6.9577341 -5.2369995 -1.3074168
5.2772784 -3.0779517 -0.66616392
5.2588215 -3.0646226 -0.6485163
5.23807 -3.0512383 -0.63058752
5.1734734 -2.9970784 -0.60792106
6.8580585 -5.2570448 -0.96223921
4.3046594 -8.020999 -1.3166956
7.4342828 -5.5867977 -0.26248267
7.4505906 -5.6132669 -0.23674779
7.5600882 -6.0161452 -0.2384872
7.5589933 -6.0257006 -0.21124282
1.9065086 -1.3808876 0.54458046
-0.70192063 1.4762628 0.0064496868
-0.6321013 1.4714798 -0.29860768
-0.54283202 1.7922046 -0.27735642
0.18636872 2.404882 -1.3817002
0.16776797 2.4384155 -1.4087443
0.16657473 2.4463356 -1.4216833
0.19124971 2.4165339 -1.4143239
0.23094639 2.0988984 -1.4492229
0.26416951 2.0126505 -1.5290626
0.23089635 0.84458226 -1.4361085
4.4765158 -1.6467214 -1.1343757
3.5574644 -1.73307 -1.0951483
4.4314928 -1.8377982 -1.1369185
5.2908764 -3.0232091 -1.3100224
5.2753892 -3.0167203 -1.2903029
5.1755285 -2.9349329 -1.2445108
5.1324277 -2.90312 -1.2176673
5.1401949 -2.9138949 -1.2040199
5.1290021 -2.9105279 -1.1871909
5.1322508 -2.920475 -1.1739439
5.1994395 -2.987659 -1.1799649
5.2229118 -3.0160375 -1.1721752
5.1824484 -2.9866822 -1.1461585
5.1738977 -2.986109 -1.1293328
5.1653109 -2.9854798 -1.1125591
5.1872425 -3.0194678 -1.0903442
5.2812138 -2.9783871 -1.0128665
5.2840428 -2.9881473 -0.99888116
5.279521 -2.991066 -0.98394656
5.2866058 -3.0050011 -0.97011
5.2583709 -2.9869287 -0.94992608
5.2551274 -2.9913211 -0.93462062
5.2200961 -2.9818809 -0.8835898
5.2344871 -3.0016305 -0.87275475
5.2295766 -3.0045061 -0.85721612
5.2408161 -3.0219045 -0.84482485
5.269794 -3.0514321 -0.83583379
5.2087288 -3.0041096 -0.80901611
5.1802535 -2.9852641 -0.79011136
5.0796733 -2.9013216 -0.75789452
5.1752591 -3.0021322 -0.74675006
5.2344475 -3.0638318 -0.74130327
5.3197503 -3.0448544 -0.60173047
4.3483171 -1.3906696 -0.16232926
7.114284 -5.1517782 -0.83418638
7.2238269 -5.4614186 -0.44410065
7.300962 -5.3833823 -0.20897517
7.4591036 -5.8084545 -0.25489664
7.0123534 -5.109395 -0.18391307
6.9467015 -5.0563903 -0.16041316
3.2547643 -1.6615628 0.52087665
4.0382924 -8.1043777 0.48291659
-0.67404759 1.4924389 -0.35388795
0.16528572 2.4206738 -0.98389691
0.12714513 2.4882109 -1.0174646
0.10798436 2.5074408 -1.1473922
0.094849214 2.5377548 -1.1687962
0.12434104 2.5021553 -1.1601955
0.10580235 2.513257 -1.2840033
0.10543481 2.5338068 -1.3094857
0.12240919 2.4820323 -1.3976268
0.10741401 2.5350797 -1.4500065
0.12204263 2.4764917 -1.5286618
0.10316141 2.5366831 -1.5894628
0.14945638 2.4413123 -1.6519228
0.17076634 2.4288149 -1.6582286
0.91339099 2.3607941 -1.4859673
3.6880388 -1.8687507 -1.6935122
5.2649074 -2.9973242 -1.2772141
5.2889071 -3.0308006 -1.2731456
5.1796103 -2.9477291 -1.2267464
5.4003935 -3.0236063 -1.1937686
5.1130943 -2.9009249 -1.1950177
5.141202 -2.9385028 -1.1918321
5.1630297 -2.9773049 -1.1767267
5.2131062 -3.0337286 -1.1809195
5.2271595 -2.9337072 -1.0865922
5.4918308 -3.0331647 -1.0701071
5.4376135 -3.0662084 -0.98221147
5.0665107 -2.9116671 -0.9317221
6.8747473 -4.7525148 -1.4600061
6.9107199 -4.8056359 -1.4518638
5.1734381 -2.9358652 -0.83011752
6.9407892 -4.8535185 -1.4419583
5.2025785 -2.9864764 -0.81259143
5.1425209 -2.9584811 -0.77732474
5.2275033 -3.0589037 -0.77047539
5.2558079 -3.035584 -0.62499553
4.9899521 -3.4137576 0.3417857
-0.65720153 1.4688911 -0.1401539
-0.65084398 1.4715766 -0.22242475
-0.65566224 1.4822508 -0.22882541
-0.5326243 1.7992427 -0.35598192
0.1764776 2.4071939 -0.99785262
0.18251467 2.3971453 -1.0785416
0.18492272 2.3937113 -1.2486941
0.17445961 2.4087253 -1.3485932
0.13711117 2.4709573 -1.4774721
0.17315665 2.4093025 -1.5360633
1.4336038 3.3657763 -1.2511414
1.4454792 3.310396 -1.234417
2.3993173 1.0942833 -1.401463
4.4307103 -1.8359987 -1.1562829
7.4132986 -5.5713387 -0.25535673
7.4698944 -5.6599355 -0.24519365
6.9325566 -5.2236719 -0.19299239
6.9658155 -5.2898979 -0.18185431
5.7268758 -6.4376183 0.070741899
5.5258012 -6.5916204 0.60004616
-2.4533978 -1.6748822 -0.79526776
-0.66560346 1.482998 -0.21699412
5.0604815 -2.8183537 -1.0190692
7.5070295 -5.8500876 -0.27445439
7.3641748 -5.7476225 -0.26212361
6.0878234 -6.3474622 0.018638626
5.7023668 -6.3676281 0.082279772
3.8172026 -3.9696791 -0.56137389
3.9592719 -4.1964726 -0.47712398
3.8771193 -4.0749631 -0.34377113
3.9687033 -4.2155099 -0.23832864
3.7854304 -3.934263 -0.21612814
5.6660051 -6.7938433 0.51791501
-2.2478421 -1.8515288 -0.7648595
-2.3099167 -1.6052411 -0.76357043
-2.3544981 -1.6082637 -0.18348055
0.043471452 -0.49750707 -0.552674
-1.9132684 -1.1344522 -1.11624
-1.7959331 -1.0331069 -1.0707374
-0.40303007 1.705876 -0.29431894
-0.51087093 1.802663 -0.37679303
-0.51535994 2.1556242 -1.4156404
4.5231128 -1.6745931 -1.1469301
5.2412381 -2.8441954 -1.1547273
5.2161427 -2.845489 -1.1488734
5.1772628 -2.8359716 -1.1386554
7.1834397 -5.1983318 -0.17502868
2.7935302 -2.0575681 -1.0623337
2.8401017 -2.1231058 -0.81239098
5.7245016 -6.8530827 0.5334245
3.8087153 -3.9463003 -0.54464322
3.9023283 -4.110055 -0.22283347
-1.49387 -3.2403402 -1.4190689
0.10146057 -0.51844257 -0.48772311
0.10680073 -0.49987757 -0.51993746
0.082686812 -0.48943487 -0.56516576
0.11483625 -0.46327621 -0.58515567
0.13307057 -0.44863024 -0.61307585
-2.2725887 -1.5916929 -0.41585001
0.10342053 -0.45684642 -0.62824893
-1.0581422 -0.62424898 -0.7173121
-0.65953428 1.472999 -0.27399141
-0.5827781 1.8715924 -0.43971351
-0.46476406 1.7703453 -0.29155123
1.4277345 3.3602769 -1.2573214
1.4383079 3.3355238 -1.2484288
4.3658276 -1.3909969 0.036091138
3.3389797 -1.3786393 -1.4252663
2.206557 -1.2248496 -0.5678255
5.7043509 -6.3200397 0.0094636008
5.7974658 -6.5009928 0.0095890919
2.6142063 -1.895677 -0.51123059
3.845464 -4.0116911 -0.6318174
3.9426062 -4.171031 -0.42215341
-1.0488807 -2.9931505 -1.0247916
-2.2495227 -2.3090575 -0.61302429
-0.8857885 -0.74501002 -0.99982768
-1.8832783 -1.0370291 -0.92450762
-0.48187828 1.7846096 -0.40208367
-0.50428945 2.1500185 -1.3428062
4.5044127 -1.6092064 -1.1817328
4.3979096 -1.6587534 -1.1479236
5.1752639 -2.8232727 -1.1434983
7.5744505 -5.8871713 -0.30558172
2.8574173 -1.9597296 -0.49011892
2.6256557 -1.8011264 -0.65788937
5.63449 -6.715723 0.53766477
-0.019845014 -4.9312305 -0.30001289
-1.1193395 -2.984004 -0.82583481
-2.2017112 -1.8314993 -0.80605352
0.045805044 -0.5626027 -0.52954817
-2.4221516 -1.6664383 -0.54078054
-1.2987889 -0.1953495 -1.0963786
-0.44627249 1.7655092 -0.30618012
-0.42087123 1.7517508 -0.30304211
-0.55254859 1.8633997 -0.45030868
-0.41480765 1.7274598 -0.52392548
-0.51566201 2.1599073 -1.5903939
6.0018754 -6.4144917 0.32750526
5.5611873 -6.6391125 0.65461922
-0.76666957 -3.4243367 -0.78469974
0.090250708 -0.76949322 -0.27168494
-1.8871608 -1.0101355 -1.0824413
-0.40815419 1.7313975 -0.53633565
1.4555976 3.3012044 -1.1954112
4.3510661 -1.851488 -1.1033965
7.0301871 -4.9903264 -0.19710617
7.622716 -5.928339 -0.28350538
1.9642274 -1.2266692 0.53845614
1.9255847 -1.1532402 0.55506384
-1.9773841 -1.4752266 -0.33061627
-1.9128485 -1.2818493 -1.132591
-2.1315057 -1.1692365 -1.006845
-1.148037 -0.68653083 -0.84147602
5.0524254 0.71339303 -1.4713794
5.0505614 0.69736087 -1.4460654
4.4422121 -1.4354999 -0.034400783
-2.3459926 -1.6633099 -0.3759084
-2.401433 -1.803609 -0.62598419
-2.4380255 -1.716931 -0.83782727
-1.2032577 -0.82850939 -0.94026279
-0.93712956 -0.50108784 -1.4124367
-1.0678577 -0.48731804 -1.4741702
-0.076189645 0.16551623 -1.4911631
-0.041789759 0.17122962 -1.4548802
-0.080430098 0.16908273 -1.5134614
0.057728402 0.18545251 -1.3403677
0.055044703 0.23131669 -1.3718488
0.10275126 0.21416053 -1.4058557
0.17290357 0.22120009 -1.3111155
0.54752851 0.28056592 -1.6535273
0.55106759 0.28227985 -1.6587579
0.72448176 0.062739417 -1.576352
0.71131158 0.13435775 -1.590747
-2.2513995 -1.9098684 -0.64339191
-2.3791561 -1.787288 -0.58466339
-2.3714495 -1.6825395 -0.82339036
-2.2390471 -1.9906089 -1.0179169
-0.94208866 -0.47552308 -1.3968495
-0.94558018 -0.47467339 -1.4071183
-0.092330061 -0.26511681 -1.5967772
0.01841349 -0.080444604 -1.3498267
-0.15208057 -0.097215466 -1.5705898
-0.21289529 0.017015146 -1.5488601
0.034961484 0.13336198 -1.3314595
-0.0075830165 0.16918489 -1.391124
-0.043551303 0.22885689 -1.5174302
0.098755695 0.24813652 -1.3589647
0.039269574 0.21684709 -1.5054581
0.01617462 0.21724996 -1.5501134
0.065423846 0.22287613 -1.4820765
0.23049322 0.24235262 -1.4296935
0.2600612 0.26861221 -1.4974983
0.16543707 0.76323545 -1.5580143
-2.3166418 -1.8051062 -0.63266325
-2.2008567 -1.8602459 -0.85546529
-2.3943994 -1.7360684 -0.93496585
-2.3489938 -1.6631268 -1.0378435
-3.3468225 -0.88702762 -0.80723155
-2.0176554 -1.1966274 -1.1136065
-1.7446976 -1.1244423 -1.0822625
-1.1602988 -0.67786193 -0.8546465
-0.90097511 -0.47081426 -1.3773332
-0.94126964 -0.48524439 -1.4142321
-1.1786754 -0.51854998 -1.5554057
0.0094303666 -0.092358217 -1.3749152
-0.16037518 -0.11593661 -1.6025774
-0.1562895 0.01908689 -1.5185786
-0.016672196 0.026456643 -1.3958023
-0.0052366429 0.16515768 -1.4111255
0.012651403 0.25111982 -1.5337689
-2.3334444 -1.6474072 -0.2968652
-2.2197833 -1.9235164 -0.9592033
-1.1484797 -0.36584115 -1.5563697
-0.099493496 -0.22190532 -1.6036836
-0.12616815 -0.084011719 -1.5938404
-0.035831034 0.00065639813 -1.4714543
0.2845487 0.25870019 -1.5184379
-2.3223948 -1.6478554 -0.64897871
-2.3730254 -1.6770382 -1.0222851
-0.92175275 -0.45127612 -1.3698784
-1.0005207 -0.48001209 -1.4383768
-1.0718365 -0.42888433 -1.4986591
-1.1810297 -0.38565871 -1.5900271
-0.0044712098 -0.20576049 -1.4864029
-0.048869722 -0.18458144 -1.5323694
-0.1015403 -0.16495711 -1.5817263
-0.093674697 -0.10821541 -1.5650958
-0.072310857 0.1181415 -1.5776148
-0.041735671 0.19135228 -1.586552
0.0077092848 0.19679062 -1.4996626
-3.5381925 -0.96093082 -0.58966208
-3.308594 -0.87373072 -0.89938563
-1.5949657 -1.1435293 -1.1803879
-3.3048983 -0.85911506 -1.0702875
-1.0844512 -0.28231117 -1.5073136
-0.048310298 0.15121244 -1.5896583
0.043335792 0.16155553 -1.4053911
4.4175768 -1.4014024 0.1271839
5.1195359 -3.0161848 0.49148104
0.31364229 -3.4748087 0.21169141
-2.384625 -1.6880989 -0.75598466
-0.95993054 -0.34834948 -1.4382905
-1.2438653 -0.28213677 -1.6165899
4.9921694 -3.3987317 0.31464291
-0.0014009952 -4.9261036 0.14006123
-2.2887125 -1.6214232 -0.45610982
-2.4646041 -1.7256769 -0.76042563
-2.3572288 -1.6569527 -0.8246792
-2.3821363 -1.6771171 -1.0167146
-0.23555201 2.203913 -0.44118074
4.3775897 -1.3381363 -0.74505007
4.5203085 -1.5142369 -1.1847479
4.3896227 -1.3642904 -0.25652519
4.3819871 -1.8944426 -1.2381506
4.3276873 -1.9253744 -1.2233957
1.319239 -4.8214941 -1.3501458
0.13178903 -4.8472924 -0.54297668
-0.010789296 -4.9548469 0.034464832
-2.2693889 -1.8935467 -0.83637679
-2.41363 -1.6823099 -0.28153166
-2.3628373 -1.704301 -0.9466731
-0.23118077 2.0685747 -0.24552839
4.3300591 -1.3295665 -0.53521514
4.2934322 -1.3326914 -0.15030025
4.2839832 -1.3483256 0.22527759
4.3171334 -1.8836979 -1.3281472
0.22562623 -4.736372 -0.86064446
0.020035597 -4.9712811 -0.42727035
-2.5091736 -1.7442902 -0.50727516
-0.21103242 2.1870601 -0.44381219
3.5837986 -1.2581502 -1.0986509
4.3137436 -1.9261616 -1.231373
5.032371 -2.9300346 0.51382047
1.682785 -0.90086383 -0.51524186
1.7027266 -0.92435688 -0.52514452
1.6800607 -0.91048187 -0.51529795
1.7297673 -0.96620685 -0.53971535
1.6821654 -0.90237856 -0.35975388
1.6769594 -0.90295893 -0.28254327
-2.3338737 -1.6370161 -0.24377449
-2.3704104 -1.6657495 -0.49647608
-1.087853 -0.61353517 -0.70401669
-3.2913086 -0.83845097 -1.1812462
4.3730998 -1.3571562 -0.89993501
4.4312606 -1.3846812 -0.8053866
4.4050756 -1.3770243 -0.58993417
4.3198214 -1.3539726 -0.070054501
1.676742 -0.90075004 -0.22637904
1.6951321 -4.5150976 -0.075241141
-2.3333576 -1.622682 -0.1737411
-2.2705238 -1.598561 -0.33401322
-2.3938332 -1.6876366 -0.99655759
-1.2164168 -0.15873566 -1.4582415
0.0037305949 -4.9612117 -0.096608952
-0.45544356 -4.467936 -0.55401194
-2.2995346 -1.9219301 -0.87133747
-2.2892292 -1.6828805 -0.58147645
-1.003582 -0.36209771 -1.5039674
-1.1699413 -0.27056682 -1.5973346
4.3024883 -1.34586 0.13697267
-1.1048815 -3.0412061 -0.85791236
-2.5102146 -1.7484239 -0.31160325
-2.3767526 -1.7813402 -0.63467801
-2.4194264 -1.6977676 -0.71308017
-1.1772376 -0.48942927 -0.46326077
-1.0431234 -0.43901914 -1.5419505
4.2571325 -1.1378187 0.47302577
-1.8445828 -1.4623977 -0.30162701
-2.4849374 -1.7307997 -0.30225316
-1.6784775 -1.2436761 -0.37876037
-2.3671012 -1.7123368 -0.72294605
-2.3681917 -1.7172011 -0.97548342
-1.6566439 -1.065716 -0.99976325
-3.3402016 -0.84527951 -1.0858607
-3.3418307 -0.84004503 -1.229996
-0.87095588 -0.52686471 -1.47049
-0.99773347 -0.49632224 -1.5085374
-0.95867491 -0.41266274 -1.450696
-1.0544702 -3.0984564 -1.0431263
-1.4760839 -3.3236396 -1.4220378
-2.2584205 -1.9391197 -0.9867636
-2.4196751 -1.7013297 -0.85755509
-0.85902387 -0.50862861 -1.4506985
-0.99662352 -2.9252348 -0.9541046
-2.3147411 -1.6215608 -0.22310507
-2.4101586 -1.6875819 -0.90822804
-0.94708478 -0.41162285 -1.4388409
-1.0123689 -2.9686399 -0.99255687
-0.94178826 -2.9532795 -1.0347908
-2.3308485 -1.63034 -0.95391697
0.087155148 0.12628084 -1.5977412
0.024288852 -4.9902759 0.07972274
-0.7399376 -3.5373151 -0.89496619
-2.3319197 -1.6510221 -0.96871632
-0.98919392 -0.48371804 -1.5731819
-1.174899 -0.15165141 -1.3138906
-0.96700341 -0.26825953 -1.4755048
-1.3217688 -0.15539153 -1.5532629
-0.7256375 -3.4767158 -0.82641321
-1.9705435 -2.7785935 -1.0529665
-1.6755126 -1.3389606 -0.30430767
-2.5091312 -1.7537018 -0.28831485
-2.2640929 -1.9393975 -0.99075043
-1.9587126 -1.2370511 -1.1461834
-2.6432469 -1.231781 -1.0454929
-0.86923277 -0.55139583 -1.5768828
-0.94599551 -0.38598001 -1.4824867
-0.99254167 -0.30496866 -1.55114
-0.60526925 1.3868859 -1.5058788
1.2123485 -1.6819819 0.35888156
0.064292148 -5.0279021 -0.44138744
-0.63470435 -3.4090819 -0.98575366
-1.9416116 -2.7409956 -1.0618758
-1.6852169 -0.98457634 -0.46396765
-1.9189898 -1.0962956 -1.0950691
-1.0984923 -0.38660634 -1.1268079
-0.79588497 -0.4958587 -1.4673928
-0.91919631 -0.35562822 -1.4654179
0.018687543 -4.9607892 -0.0037301863
-2.397959 -1.686236 -0.34884223
-2.4251673 -1.6997596 -0.85787302
-2.3430903 -1.6481655 -0.91076744
-1.813381 -1.1289406 -1.0386955
-1.0933998 -0.39744896 -1.1372521
-0.92552924 -0.35446 -1.4963622
-0.92653221 -0.27405137 -1.4727938
-0.96551853 -0.23242293 -1.4896165
1.1931618 2.4899073 -1.4542454
1.2205771 -1.67811 0.48602533
1.7474926 -4.480144 -0.068765827
0.0091222487 -4.926156 0.066226743
-1.5178657 -1.2260075 -0.26724127
-1.580883 -1.0288569 -1.6039478
-1.678701 -0.88814485 -1.2847413
-0.90211886 -0.28534928 -1.4494085
-0.91636419 -0.23285012 -1.4271988
-0.16676126 1.8354028 -1.0228823
0.40818247 2.073451 -1.5378131
1.9160964 2.4552975 -1.244224
0.024529073 -5.0214968 0.037849817
-0.61365014 -3.3351595 -1.0232997
-0.62465751 -3.4225175 -1.257573
-1.8691587 -1.5149183 -0.29885706
-2.288229 -1.9181434 -0.87125385
-2.3832815 -1.6683549 -0.54839253
-1.7853917 -1.0985767 -0.99001718
-1.9513836 -1.0817677 -1.1203994
-1.7649813 -0.37834719 -0.93550783
-1.126516 -0.36353731 -1.2227963
-0.22442858 1.8703573 -0.55802244
1.2884829 2.7007792 -1.5590496
1.3261783 1.5112983 0.3264055
4.2908778 -7.8544059 -0.93149036
0.022216847 -5.0114641 -0.18510292
-0.53489655 -3.3618362 -1.1881536
-1.9071319 -1.077396 -1.1515704
-2.0328515 -1.0440577 -1.055568
-2.6990154 -1.0362413 -1.1065946
-1.8141806 -0.78264713 -1.308522
-3.3099346 -0.82452953 -1.1930058
-1.7172923 -0.3753483 -0.90732044
-0.59078032 1.3481251 -1.502858
-0.83944947 1.6948885 -0.32136747
0.39079645 2.0094514 -1.5323746
4.3128357 -1.3220615 0.010192299
4.5482507 -7.7852416 -1.0487024
1.7643858 -4.486218 -0.62660122
-2.4233112 -1.6839281 -0.28439766
-2.352191 -1.6478152 -0.83602488
-1.7908599 -1.0965703 -1.0642242
-2.720912 -1.1445255 -1.0791024
-2.723227 -1.0014188 -1.1565733
0.39232582 2.067627 -1.5354767
6.4970846 -6.0901742 0.3380169
3.4142466 -4.5548768 -1.0856832
4.4704576 -7.9243822 -0.97722185
4.3713894 -7.8199301 -0.96083105
-1.091486 -3.073189 -0.86589146
-2.3255486 -1.6312286 -0.39597508
-2.4291682 -1.6902585 -0.54321271
-2.4476683 -1.6974283 -0.48515204
-2.2908387 -1.6060221 -0.62214774
-2.3203897 -1.6280235 -1.0167234
-1.8241307 -0.89791799 -0.88479125
-2.6477067 -1.0469664 -1.0769639
-3.2814403 -0.83163494 -1.1050304
-0.86490834 1.7482393 -0.19402592
-0.66032147 1.8252573 -0.31052503
-0.22201388 1.6831597 -0.39256954
3.0455713 0.20715649 -1.5608448
1.6114551 -2.0338411 -0.85127622
6.2266531 -5.8260894 0.17972299
3.5004458 -4.6686144 -0.87872034
3.5227985 -4.7003675 -0.61277914
1.7517442 -4.4677691 -0.61703295
1.680858 -4.3306808 -0.18284625
-0.50322777 -3.2474272 -1.3566215
-0.5971278 -3.2442763 -1.5226511
-0.64283365 -3.4984758 -1.1360934
-0.79669082 -3.6247089 -0.84790003
-2.4079502 -1.722068 -0.92691898
-2.2820854 -1.6061064 -0.44269422
-3.3285501 -0.83374459 -1.2428632
-1.8219092 -0.62332839 0.17199424
-0.65901369 1.6731718 -0.064470477
3.123219 0.61867505 -1.3326274
6.4722619 -6.0319448 0.1054633
6.5021601 -6.091753 0.31136441
1.4134403 -2.1189938 -0.8412289
3.3747323 -4.4973903 -1.3087071
3.426445 -4.5511284 -1.0553294
4.4829211 -7.7551785 -1.0478197
4.4780073 -7.9076128 -1.0638273
1.7929447 -4.5184779 -0.7218163
1.8089153 -4.585115 -0.18490097
1.7513064 -4.4742289 -0.072561279
0.87771332 -4.4812818 -1.6021388
-2.2857103 -1.9048601 -0.70089889
-2.4308493 -1.6886351 -0.91441399
-1.6180936 -1.0715765 -0.84537566
-0.6548512 1.6857877 0.0015023743
-0.21504128 1.6691569 -0.61756182
6.7293253 -6.2636309 0.6519891
3.4453659 -4.58111 -0.86018604
1.8397133 -4.5780826 -1.1654381
-0.58988321 -3.1922312 -1.6555831
-0.77786607 -2.9380383 -0.96387976
-2.313863 -1.9256552 -0.17870454
-2.4906209 -1.7329159 -0.30914271
-2.3642797 -1.6531394 -0.99885952
-2.3149228 -1.6266328 -1.0353936
-1.7752262 -1.1968118 -1.0641474
-1.6738267 -1.0521394 -1.0193461
-1.8760314 -1.0700824 -0.91794217
-1.9257678 -0.88314319 -0.95368123
-1.693234 -0.83302176 -1.540081
-2.8149719 -0.94335961 -1.2649692
-2.8413045 -0.92015326 -1.2793479
-2.7152443 0.038431678 -0.87823629
-0.83051121 1.7402922 -0.08766932
-0.59549886 1.6561388 -0.31272617
-0.86851341 1.6612353 0.29631326
-0.024845423 2.0614026 -0.42101207
0.0094687697 1.8965611 -0.2898573
3.4550955 -4.6146116 0.079670079
3.4120638 -4.5627937 -0.063043095
3.3577123 -5.5156841 -1.3567848
1.8149645 -4.4853296 -0.97691345
1.784548 -5.0497804 -1.0120348
1.9398105 -4.9370022 -1.4853555
0.023158014 -5.0460539 -0.088739209
0.020660922 -4.9825897 -0.2150232
-0.76891977 -3.5525582 -0.89727366
-0.76719075 -2.8708951 -0.88425714
-0.7571997 -2.8981972 -0.9689064
-0.94520158 -3.0004263 -1.5810207
-1.9072046 -0.92905271 -1.0742486
-1.8816488 -0.88478774 -0.94948417
-1.694782 -0.75929153 -1.6061056
-1.6002859 -0.73175001 -1.5448364
-2.7543476 -0.02828403 -1.793401
-0.5198878 1.4773386 -0.58366179
-0.51397467 1.5207361 -0.5916127
-0.56802326 1.5395641 -0.3601706
-0.58306819 1.4319263 -0.28754044
-0.57984537 1.8338588 -0.34517622
-0.8322562 1.7480214 0.10100313
4.4627934 -3.9569318 0.5364601
4.7019615 -7.3253245 -1.6362475
3.3489647 -5.4704986 -1.557849
1.8230362 -4.4464254 -1.4375124
-0.51174974 -3.3447268 -1.2321585
-0.45193988 -3.1602545 -1.2884183
-0.94196254 -2.9964471 -1.5870156
-1.8169407 -1.2012852 -1.1176097
-1.5803339 -1.0094533 -1.5760146
-1.8150042 -0.8560344 -1.6113598
-1.5885839 -0.63807267 -1.540483
-0.52109617 1.4367532 -0.57068497
-0.56850946 1.739727 -0.37179279
-0.20271142 1.6382371 -0.60354674
2.030931 -4.59589 0.31328839
1.8609843 -4.5797043 -0.00046108846
4.5340285 -6.340229 -1.4888391
3.2963724 -5.4077387 -1.5647492
2.0019264 -4.8447804 -0.73476642
1.7451494 -4.4324269 -0.83292174
1.7718925 -4.390461 -0.94222194
2.033757 -4.8891592 -1.1200429
2.0562963 -4.8651619 -1.477634
2.0440457 -4.8642058 -1.4885856
1.2705873 -5.3084664 -1.0572927
1.4593532 -4.6893234 -1.3359243
0.024575949 -4.9936309 -0.23311833
1.3947135 -5.2451882 -1.4751813
1.3819717 -5.2407222 -1.4853797
1.0606308 -4.6172891 -1.3403544
-0.99181956 -3.2975414 -1.5259857
-0.94880366 -3.0178328 -1.574098
-1.6398989 -1.1121558 -1.0429037
-1.7092701 -1.0475672 -0.99349689
-1.8986115 -0.99576831 -1.1347796
-1.6438124 -0.79659474 -1.461622
-1.6404819 -0.74585575 -1.4368063
-1.6305488 -0.71999294 -1.5612079
-1.3744717 -0.64052176 -1.3348511
-1.852676 -0.63755023 -1.5283027
-0.45666352 1.4173225 -0.73407418
-0.52342445 1.4493858 -0.57211912
-0.56837481 1.4466799 -0.38149473
-0.58282495 1.4264543 -0.31636676
-0.26224548 1.4176304 -0.563389
1.2540439 -1.6523707 0.41202638
3.6875558 -4.8597379 -0.8500213
1.8099384 -4.497283 -0.078044362
4.6092873 -7.5688863 -0.86882955
4.4429407 -6.1690207 -1.5557151
1.7939326 -5.0424843 -1.0054531
1.7507546 -4.9853072 -1.0036658
1.8425997 -4.4963708 -1.424571
1.9732815 -4.8690605 -1.4653261
1.3941873 -4.6802301 -1.3032964
1.2437962 -4.7094913 -1.3058197
1.2436013 -3.0644145 -1.5275059
-0.76132619 -3.4583085 -0.81446236
-0.72119468 -3.4749262 -0.87596977
-0.51220524 -3.4152532 -1.2573612
-0.58433694 -3.3537681 -1.1999967
-1.0821278 -3.245991 -0.90924639
-1.0391909 -2.9537632 -0.8147791
-0.95379925 -3.01612 -1.563586
-0.95873314 -3.0037677 -1.5630867
-1.5782081 -1.0048071 -1.5934114
-1.7784936 -0.94898361 -1.0589379
-1.7554832 -0.82110602 -1.5153126
-1.6177175 -0.79224455 -1.3897464
-1.6960495 -0.72439522 -1.6180685
-0.49760073 1.4924808 -0.66725695
-0.49572662 1.4609994 -0.65295619
-0.80342174 1.7504566 -0.053858634
-0.63090187 1.6017675 0.11511107
1.2451252 -1.6363698 0.23172133
4.3061948 -4.1363859 0.52690417
2.0380602 -4.6922016 0.32349527
4.5952201 -7.5585437 -0.87345165
3.549017 -5.799829 -1.3153477
3.3239036 -5.4707098 -1.4154044
1.8861738 -4.5905166 -0.51049954
2.0166569 -4.8493252 -0.73601621
1.2857232 -3.1165307 -1.6301953
1.1077049 -4.6308231 -1.3096088
-0.59331232 -3.4586112 -1.0363462
-0.76319796 -3.4758403 -0.82184017
-0.56843215 -3.1655679 -1.6452506
-0.94818562 -2.9934416 -1.5969938
-1.9034935 -1.048473 -1.132087
-1.9396085 -0.96038693 -1.1283931
-1.7855756 -0.80395079 -1.605688
-1.3633695 -0.6558392 -1.4839827
-1.3854892 -0.61453146 -1.3300034
-1.5899017 0.80498993 -1.5332121
-0.52461892 1.4217128 -0.5519774
-0.55351663 1.4569346 -0.44797584
-0.79595309 1.7532212 -0.11191031
-0.56262308 1.8252829 -0.38722077
-0.59221429 1.7623396 -0.17699142
-0.33838424 2.0567167 0.37377277
1.8495332 -4.5363035 -0.55395871
1.7959958 -4.4392433 -0.92636859
1.74676 -4.9543209 -0.96453542
2.0779724 -4.8553238 -1.4847888
2.0687833 -4.8649192 -1.4958143
2.0490432 -4.8585 -1.5009896
1.1502622 -5.3282747 -1.0544605
1.3847939 -5.2453413 -1.4761283
1.3705853 -5.2465563 -1.4848977
-0.52986968 -3.2016661 -1.4119616
-0.77030736 -2.9958179 -0.98458391
-0.56825644 -3.1609266 -1.5970684
-0.94986194 -3.012069 -1.5894765
-2.3693075 -1.6475161 -0.87364084
-1.7552489 -1.1314188 -1.0223405
-1.8231589 -1.0301603 -1.036257
-1.818152 -1.0067248 -0.92940038
-1.8648247 -1.0160148 -0.92014921
-1.8520685 -0.96732914 -1.1402123
-1.5907797 -0.77036083 -1.4460405
-1.6115019 -0.69754195 -1.6057377
-0.48071983 1.3899919 -0.70883209
-0.49609411 1.4716022 -0.6821776
-0.51773876 1.4513073 -0.62261826
-0.53793895 1.4447404 -0.56838191
-0.57007104 1.5119129 -0.41608563
-0.56606388 1.4456172 -0.39990208
1.3567336 1.5300667 0.44376513
1.8073498 -4.4998803 -0.11509514
1.3633891 -5.2414708 -1.4838275
-0.58359426 -3.3819277 -1.1916478
-0.67056757 -3.5019677 -1.0429232
-0.76320744 -3.4920061 -0.84683061
-2.3571701 -1.7511264 -0.65602946
-2.3390605 -1.7252272 -0.64630389
-2.3376787 -1.7020581 -0.63827044
-2.3463619 -1.630022 -0.24837761
-2.4621687 -1.6812328 -0.36711699
-1.8265071 -1.0345141 -1.0832992
-1.8038158 -0.94044316 -1.1422871
-2.8397887 -0.97300071 -1.2296323
-3.214088 -0.76352209 -1.5654991
-2.1801515 0.38183337 -1.1452495
-0.52590925 1.492157 -0.63366199
-0.58282542 1.8418155 -0.4246437
-0.58854073 1.829152 -0.35883757
-0.22843859 1.6418362 -0.69448805
1.3265612 1.5188508 0.3289229
3.3829412 -4.5389357 0.10042869
3.316617 -4.4407721 -0.78069538
3.3223617 -4.4324188 -1.1686465
1.8606958 -4.540545 -1.1644636
2.0343597 -4.8611398 -1.5148009
-0.46082908 -3.1645143 -1.0956842
-0.7228806 -3.5473685 -0.99037009
-0.77706414 -2.9820929 -0.95604128
-2.2971928 -2.0549922 -0.48014161
-2.2915862 -1.9113212 -0.20441927
-2.2057796 -1.8436022 -0.83887368
-2.7984254 -1.0328805 -1.189991
-3.366565 -0.8210507 -1.1822731
-3.2853539 -0.81687611 -1.2233431
-0.57854968 1.4285284 -0.30775231
-0.54762387 1.4825352 -0.48974007
-0.23186289 1.6475174 -0.6324693
-0.20804572 1.7000545 -0.65009975
-0.013716673 2.112175 -0.35741898
1.0347534 -1.0049096 -0.9497503
3.4644415 -4.5973525 -0.55350924
3.534946 -4.6739383 -0.42804587
5.2557445 -7.3645058 -1.4066257
1.7198924 -4.3298669 -0.99544728
1.7515991 -4.4187384 -0.070921145
1.7810767 -4.9977188 -0.96075183
0.024823409 -4.9736185 0.017015031
-2.2809851 -2.0512395 -0.47107059
-2.5313909 -1.7138934 -0.40048248
-0.60449719 1.7535059 -0.21092775
-0.58056831 1.4616183 -0.28916848
-0.50137597 1.3578299 -1.4005049
1.2740859 2.4553344 -1.2091446
1.2917902 2.4602582 -1.2147013
4.9494796 -3.3662663 -0.74855214
3.3390048 -4.4825239 -0.29524899
2.0607908 -4.870574 -1.4925252
1.780033 -4.4235773 -1.0927417
1.7739067 -5.0388999 -1.0163486
0.50762564 -4.863358 -1.6845914
-0.76822817 -3.632266 -0.86709648
-2.2461324 -2.0129063 -0.45495498
-2.4399807 -1.6571206 -0.44798303
-0.61842257 1.7140013 -0.063017003
-0.57599151 1.4348352 -0.32548597
-0.56118256 1.5042113 -0.39828742
-0.53105867 1.4677027 -0.56940794
-0.51477396 1.5019865 -0.64258569
-0.044847168 2.0881622 -0.44920719
0.70065224 2.3528705 -1.5790136
1.632345 3.1926434 -0.95125639
3.5409184 -4.6773443 -0.089296155
3.9586427 -5.3305073 -0.98795491
3.295934 -4.4927831 0.302939
3.5057514 -5.7547679 -1.1701218
4.690372 -7.4530072 -0.93040878
1.8198756 -4.489706 -0.56286979
1.5797598 -4.5783577 -1.4793878
0.90530437 -4.4715176 -1.6527737
1.0116237 -4.7688661 -1.5585686
0.012238638 -4.9171929 0.044785421
-0.7165432 -3.604866 -0.87760097
-2.3498378 -1.8511492 -0.76169562
-2.309454 -1.8159287 -0.74127448
-2.3332222 -1.8214976 -0.75212038
-2.5359228 -1.6738222 -0.66972792
-2.0596011 0.46880242 -1.3192179
-0.79812557 1.678895 -0.098605603
-0.79334027 1.692188 -0.16117555
-0.61773556 1.6705471 -0.044270098
1.5136691 -0.57447636 -1.042505
3.3655035 -4.4644828 -1.2640874
3.5546176 -4.6885982 0.13293254
3.3423576 -5.4976969 -1.5194334
1.7629616 -4.9728379 -0.98113531
1.2648194 -5.3152819 -1.086629
0.09649004 -5.1709523 -0.33622155
-2.2914495 -1.9530116 -0.20265332
-2.2954657 -1.8824853 -0.85533929
-2.3275549 -1.8915095 -0.92913234
-2.351248 -1.6685516 -0.65574336
-2.5427721 -1.6558714 -0.21406952
-2.5383835 -1.6520886 -0.26264408
-2.9385622 -1.3310744 -1.1155695
-3.3279243 -0.82082367 -1.0607233
-1.9590725 0.55945987 -1.3949746
-0.57755995 1.4300503 -0.28898978
-0.52490622 1.4756832 -0.59254098
-0.21545123 1.8156945 -0.80508637
-0.13162144 1.9088528 -0.98371613
2.5773394 0.42298999 -1.7247368
2.6389389 0.43862507 -1.7559716
1.8453844 -4.4879546 -1.2980254
1.7896278 -5.0162425 -0.99846447
1.1815293 -4.685842 -1.3205642
-0.75486922 -3.5053024 -0.84154952
-2.2735851 -2.1591718 -0.2090001
-2.2248349 -2.1179922 -0.20083533
-2.3767653 -1.6296817 -0.17584494
-2.4596875 -1.6392276 -0.76790547
-2.4283881 -1.6089869 -0.65161669
-2.5263476 -1.6400796 -0.63795859
-2.9216745 -1.3449221 -1.1385518
-1.8369957 -0.91975999 -0.87868661
-3.358876 -0.80556482 -1.1063411
-2.6886857 -0.43111169 -1.6392477
-1.8503509 0.62351048 -1.3016405
-0.57464433 1.5107797 -0.3462072
-0.35810426 2.009198 0.35992378
1.6328135 -2.1389539 -0.89131337
3.3468881 -4.4941592 0.29806742
1.5117601 -4.3374233 -1.5566478
1.3875836 -4.7668223 -1.339905
0.046115708 -5.0556498 -0.20787697
-0.57547677 -3.3048427 -1.2218326
-0.81426173 -3.1460912 -0.8992328
-2.2415738 -1.8281168 -0.87852031
-2.3450372 -1.585761 -0.64984727
-1.9029511 -0.78503448 -1.2385087
-2.408061 -0.67990357 -1.2953978
-2.4298582 -0.66801357 -1.309883
-2.7545216 -0.57473791 -1.552794
-0.56509542 1.862784 -0.37811899
3.3265793 -4.465034 -0.11046431
4.9834728 -7.022675 -0.65009218
1.7939129 -4.4099197 -0.81295317
1.7731942 -4.4372358 -0.83869231
1.7660488 -4.3640032 -1.169295
2.1065109 -4.815156 -1.4900723
