# .PCD v0.7 - Point Cloud Data file format
VERSION 0.7
FIELDS x y z
SIZE 4 4 4
TYPE F F F
COUNT 1 1 1
WIDTH 748
HEIGHT 1
VIEWPOINT 0 0 0 1 0 0 0
POINTS 748
DATA ascii
1.8106897 2.9345157 -0.1922514
1.8382211 2.9531524 -0.11141381
1.8068984 2.9322927 -0.093264252
1.7619479 2.9025896 0.0071725249
1.7616992 2.9024463 0.014440864
1.7619505 2.9026599 0.029117107
1.7472236 2.8928795 0.046321422
1.7373087 2.8866162 0.16095129
1.7405903 2.8888581 0.17709216
1.7479026 2.8938494 0.21185192
1.7536626 2.8977635 0.23353657
1.7562914 2.8995466 0.24250153
1.7620885 2.9034939 0.26683733
1.7588794 2.9013782 0.27557519
1.7486043 2.8945618 0.28999224
1.7471759 2.8936126 0.2915484
1.745703 2.8926342 0.29311904
1.7364447 2.886477 0.30124417
1.7189615 2.8748372 0.31242082
1.7165904 2.8737974 0.48665407
1.7382123 2.8883088 0.50997114
1.757473 2.901216 0.52463257
1.7724843 2.9113934 0.573735
1.7715402 2.9108317 0.59575188
1.7712798 2.9107285 0.61838448
1.7723162 2.911458 0.63046503
1.7496748 2.8963401 0.63088918
1.7409613 2.8905284 0.63303649
1.7405856 2.8902776 0.63307381
1.7297108 2.8830144 0.63266516
1.642957 2.8254383 0.74648654
1.6285679 2.8157928 0.73464131
1.56394 2.7723033 0.62792253
1.5255127 2.7466099 0.61738837
1.5160928 2.7403014 0.61147952
1.499999 2.72947 0.58447492
1.4736154 2.7117221 0.54282784
1.4788582 2.7151465 0.51829755
1.4856007 2.7195785 0.49575499
1.4903457 2.7222297 0.32996592
1.4678774 2.7071812 0.31554046
1.4685557 2.7076001 0.30464324
1.4728026 2.710372 0.2840825
1.4750612 2.7118411 0.27160332
1.4769652 2.7130852 0.26278058
1.4851985 2.7184646 0.22482035
1.4885087 2.7206254 0.20890585
1.4909406 2.7221966 0.19205698
1.4902785 2.7215812 0.13649103
1.493726 2.7237666 0.099041939
1.4869576 2.7191381 0.064264774
1.4905379 2.7214625 0.042970806
1.4902461 2.721133 -0.00024336576
1.4773135 2.712266 -0.074261278
1.4821365 2.7154379 -0.089888036
1.4864955 2.7182555 -0.11973138
1.4874976 2.7189145 -0.12298684
1.4941039 2.7231476 -0.18017294
1.4927058 2.7220824 -0.22237401
1.4911945 2.7209837 -0.25103939
1.4869878 2.7180707 -0.28435653
1.4937503 2.7224653 -0.3231622
1.4932203 2.721961 -0.37137875
1.4948092 2.7229419 -0.39705762
1.4990354 2.7256055 -0.44780833
1.4963834 2.7237639 -0.47047812
1.4923596 2.7210186 -0.48918703
1.4893219 2.7189298 -0.50858855
1.4880056 2.7180336 -0.51406628
1.487226 2.7174828 -0.5236842
1.4948297 2.7223775 -0.58226764
1.4953351 2.7226298 -0.60963267
1.495568 2.7227249 -0.62898946
1.4987128 2.7246881 -0.6728344
1.4991913 2.7249105 -0.7039867
1.498045 2.7240353 -0.73909241
1.49893 2.7245979 -0.74819744
1.4993348 2.7247071 -0.79983735
1.4992831 2.7245877 -0.82705402
1.4983878 2.7238607 -0.86841273
1.3936651 2.6536994 -0.94240272
1.3305707 2.6115255 -0.95571935
1.281523 2.5787637 -0.95875144
1.2663593 2.5686488 -0.95519876
1.2145224 2.5340886 -0.93762267
1.1883864 2.5166621 -0.92923653
1.1606462 2.4981971 -0.91033292
1.1200445 2.4710636 -0.91703439
1.1074083 2.4626188 -0.91916358
1.0600557 2.4308584 -0.96408963
1.0549808 2.4274602 -0.96705711
1.0382693 2.4162278 -0.99045134
0.96181822 2.364943 -1.0652124
0.9426353 2.3521247 -1.0679134
0.91561127 2.3340945 -1.0629799
0.8949666 2.3202386 -1.0854667
0.841573 2.2843742 -1.1527559
0.77116013 2.2372446 -1.1879423
0.70184493 2.191011 -1.1711223
0.6966126 2.1875315 -1.1665052
0.69056344 2.1834846 -1.168844
0.67205858 2.1709218 -1.2348847
0.65444517 2.1590471 -1.2709827
0.59171557 2.1170173 -1.3161898
0.57022476 2.1026487 -1.3219172
0.55270934 2.0909393 -1.3261374
0.54013276 2.0825317 -1.3291371
0.53769135 2.0808964 -1.3307585
0.53174543 2.0769079 -1.3365132
0.53129339 2.0764546 -1.3849816
0.52462554 2.0718474 -1.4346442
0.3658278 1.9659718 -1.3819141
0.35661757 1.9600776 -1.2998414
0.35308087 1.9578491 -1.2571396
0.3587749 1.9617596 -1.2225288
0.36850441 1.9684604 -1.1572039
0.35716748 1.961028 -1.1129661
0.34785378 1.9548465 -1.1008221
0.32161129 1.9372622 -1.1201898
0.26407123 1.898831 -1.1226981
0.23001969 1.8760997 -1.1203566
0.22024369 1.8694078 -1.1728735
0.21754682 1.8675771 -1.182447
0.21161592 1.8635653 -1.1988717
0.20293891 1.8576409 -1.2405884
0.18777645 1.8473171 -1.3043312
0.18294954 1.8440545 -1.3169158
0.18431425 1.8448724 -1.3468654
0.18327463 1.8441339 -1.3610693
0.18095791 1.8424834 -1.3942224
0.17601407 1.8389167 -1.47925
0.176386 1.8391219 -1.4930784
0.17596996 1.8388147 -1.5024703
0.17468226 1.8378443 -1.5379399
0.17470431 1.837823 -1.5494505
0.17879295 1.8404857 -1.5711063
0.18531322 1.8447206 -1.6092778
0.14436817 1.8170161 -1.7255489
0.15473425 1.8239278 -1.728906
0.23671973 1.8790344 -1.6137067
0.32336998 1.9369086 -1.6098791
0.3554287 1.9583302 -1.6054643
0.39242578 1.9830272 -1.6081221
0.39994776 1.9880499 -1.6082358
0.42137337 2.0024323 -1.5841265
0.54431319 2.0844574 -1.6066339
0.54875135 2.0874128 -1.6092463
0.55144143 2.0892086 -1.6094439
0.55887246 2.094173 -1.6088053
0.56913471 2.1010246 -1.6091033
0.57844853 2.1072497 -1.6073033
0.60866594 2.1274588 -1.597432
0.66265535 2.1634812 -1.6069651
0.68275952 2.1769097 -1.6058948
0.69202137 2.1830924 -1.6065694
0.7315197 2.209487 -1.6005522
0.73883677 2.2143688 -1.6017931
0.76773095 2.2336972 -1.5910013
0.75387287 2.2245374 -1.5608362
0.83208156 2.2772636 -1.400218
0.89513063 2.3192272 -1.4447161
0.89779019 2.3210001 -1.4456748
0.91992998 2.3357494 -1.4568622
0.93413091 2.3451984 -1.4677501
1.028718 2.408422 -1.4480734
1.0620174 2.4306378 -1.4545642
1.0896232 2.4490798 -1.4521163
1.1018448 2.4572968 -1.4342358
1.1083522 2.4616804 -1.42199
1.1172092 2.4676981 -1.3888693
1.1235647 2.472023 -1.3630294
1.1254072 2.4733517 -1.3314279
1.1141951 2.4659958 -1.2893869
1.1114697 2.4643965 -1.2187333
1.1111584 2.4642034 -1.2139969
1.1278784 2.4756215 -1.132857
1.1637211 2.4997149 -1.0819881
1.2320473 2.5453703 -1.072538
1.2587504 2.5631814 -1.0790318
1.3078408 2.5959096 -1.0959783
1.3314033 2.6116223 -1.1029332
1.4056988 2.661109 -1.1431234
1.4137802 2.6661801 -1.2473488
1.4163125 2.6677775 -1.2773321
1.4080138 2.6621077 -1.3184296
1.3988154 2.6558108 -1.3680086
1.4635916 2.6991403 -1.3442003
1.4802601 2.7102602 -1.3476799
1.4982672 2.7222581 -1.356223
1.5107193 2.7305806 -1.3538675
1.5217979 2.7379847 -1.3518556
1.5623741 2.7651055 -1.3437763
1.5769098 2.7748172 -1.3420314
1.6085441 2.7960563 -1.3053131
1.6511376 2.8245437 -1.2909242
1.654623 2.8270543 -1.2322259
1.6625488 2.8324094 -1.2121981
1.6679814 2.8361588 -1.1732053
1.6597471 2.8309753 -1.0721856
1.6950822 2.8547859 -1.0033115
1.7102532 2.8649745 -0.98478997
1.7714808 2.9061413 -0.89467084
1.7607741 2.8994143 -0.75929636
1.7594264 2.8985748 -0.73987913
1.7589641 2.8983054 -0.7272985
1.7588975 2.8982811 -0.72082877
1.7542322 2.8953149 -0.67302006
1.7539978 2.8951681 -0.6699729
1.7517416 2.8936739 -0.66596782
1.7455194 2.8895371 -0.6601392
1.735842 2.8835244 -0.51607347
1.740025 2.8863349 -0.51051545
1.7393796 2.8859348 -0.50065827
1.7542841 2.8964226 -0.32920823
1.7587163 2.8994071 -0.32120046
1.7769492 2.9118392 -0.23887445
-3.5858667 -0.67280269 -1.3696687
-3.5542569 -0.65224051 -1.544566
-3.5187645 -0.62874722 -1.6110793
-3.499907 -0.61626899 -1.6476884
-3.4943223 -0.61261642 -1.6722578
-3.4839373 -0.60571373 -1.6824907
-3.4751368 -0.59984899 -1.6863524
-3.4609556 -0.59036827 -1.6827899
-3.4555988 -0.58678615 -1.6812299
-3.4408216 -0.57691073 -1.6787436
-3.4108076 -0.55688059 -1.6826559
-3.3837228 -0.53879893 -1.68418
-3.3485787 -0.5153234 -1.681793
-3.3316894 -0.50405049 -1.683454
-3.3106499 -0.48998523 -1.6784545
-3.2811022 -0.47025311 -1.6780719
-3.2626781 -0.45795584 -1.6798712
-3.236125 -0.44022822 -1.6810542
-3.2071874 -0.42089939 -1.6793736
-3.1798806 -0.40266407 -1.6791474
-3.1076684 -0.35476351 -1.7817926
-2.9420433 -0.2441659 -1.7822777
-2.8592327 -0.18852919 -1.6737926
-2.8375626 -0.174052 -1.6716785
-2.8322029 -0.17047423 -1.6720681
-2.8170071 -0.16033137 -1.6734903
-2.7977755 -0.14748478 -1.6721007
-2.7649469 -0.12556285 -1.6720777
-2.7541294 -0.11833757 -1.6715078
-2.7299929 -0.10221189 -1.668942
-2.7032819 -0.084379852 -1.6704351
-2.6732197 -0.064301133 -1.6691159
-2.6604662 -0.055786014 -1.6695135
-2.6422501 -0.04361707 -1.6680055
-2.6319451 -0.036734641 -1.6676015
-2.6205325 -0.02911526 -1.6680988
-2.6081977 -0.020875573 -1.6671888
-2.6024246 -0.017019868 -1.6670115
-2.5867202 -0.0065281987 -1.6654618
-2.5611906 0.010511279 -1.6681706
-2.5480008 0.019318461 -1.6682756
-2.5359797 0.027351618 -1.6664391
-2.5332253 0.029191434 -1.6662736
-2.5062504 0.047202229 -1.6669687
-2.4924631 0.056409776 -1.6666813
-2.4818377 0.06350404 -1.6670407
-2.4748065 0.068199754 -1.6668718
-2.4632478 0.075922251 -1.6655961
-2.4435921 0.08904624 -1.6660513
-2.4099526 0.1115101 -1.6658851
-2.4048991 0.11488515 -1.6657511
-2.3815942 0.13045114 -1.6645499
-2.3535297 0.1491943 -1.6636944
-2.3348403 0.16167235 -1.6643859
-2.3154681 0.17461175 -1.6633615
-2.308754 0.17909807 -1.6624159
-2.2932806 0.18943053 -1.6624895
-2.2924476 0.18998712 -1.6623811
-2.2730031 0.20297539 -1.6611297
-2.2650681 0.20827252 -1.6616529
-2.2537518 0.21582672 -1.6624054
-2.243345 0.22277889 -1.6615152
-2.2229359 0.23640728 -1.6615571
-2.2092621 0.24553668 -1.6620398
-2.1967578 0.25389171 -1.6604346
-2.1782951 0.26622024 -1.6605057
-2.1609437 0.27780557 -1.6609288
-2.1487608 0.28594187 -1.6606623
-2.1328313 0.2965841 -1.6590071
-2.1168623 0.30724785 -1.6589447
-2.1012499 0.31766963 -1.660133
-2.07761 0.33346447 -1.657264
-2.0596542 0.34544921 -1.6590809
-2.0434537 0.35627246 -1.65745
-2.0281885 0.36646551 -1.6576258
-2.0229068 0.36999118 -1.658023
-2.0147598 0.37543324 -1.6574805
-1.96858 0.40627572 -1.655831
-1.9444553 0.42238507 -1.6559492
-1.9404382 0.42506745 -1.6559768
-1.9175105 0.44037783 -1.6559601
-1.9110039 0.4447217 -1.6562978
-1.8959315 0.45479089 -1.6549158
-1.8625836 0.47706008 -1.6547351
-1.8433647 0.48989779 -1.6534445
-1.8242035 0.50269204 -1.6537759
-1.8093777 0.51259482 -1.6529441
-1.7888087 0.52633429 -1.6516106
-1.7808764 0.53162932 -1.6522133
-1.7731644 0.53677756 -1.6527442
-1.7503134 0.55203742 -1.6525078
-1.7439203 0.55630571 -1.6527579
-1.727753 0.567105 -1.6517015
-1.7177348 0.57379305 -1.6522783
-1.694301 0.58944362 -1.6515577
-1.6735809 0.60328507 -1.6498915
-1.6610882 0.61162394 -1.6509602
-1.6539761 0.61637539 -1.6502651
-1.6401167 0.62562847 -1.65082
-1.6149007 0.64246738 -1.6506511
-1.5362948 0.69464678 -1.7503598
-1.5141523 0.7094242 -1.7531109
-1.4932767 0.72335166 -1.757121
-1.4067012 0.78150815 -1.6468345
-1.3987186 0.78684193 -1.6457858
-1.3740984 0.80328172 -1.6460435
-1.3680178 0.80734402 -1.6454504
-1.3599269 0.81274724 -1.6452903
-1.33995 0.82608753 -1.6452069
-1.3071538 0.84798855 -1.6449369
-1.2264339 0.90156263 -1.7500842
-1.1338835 0.96370494 -1.6410515
-1.1253648 0.96939415 -1.6408237
-1.1092069 0.98018754 -1.6396686
-1.1045482 0.98329961 -1.6392953
-1.0821196 0.99827528 -1.6397547
-1.0431625 1.0242891 -1.6399031
-0.99910009 1.0537179 -1.6381849
-0.96581769 1.0759494 -1.6360389
-0.95789433 1.0812348 -1.6378225
-0.94317657 1.0910623 -1.6380091
-0.93139499 1.0989332 -1.6368659
-0.92406547 1.1038282 -1.6366725
-0.91243017 1.1116008 -1.6357586
-0.90327942 1.1177137 -1.6350009
-0.89037222 1.1263325 -1.6350743
-0.87678981 1.135402 -1.635205
-0.8694666 1.1402888 -1.6362764
-0.85310972 1.1512116 -1.6362114
-0.83430052 1.163772 -1.6361458
-0.82816702 1.1678692 -1.6356779
-0.81720293 1.1751931 -1.6348999
-0.80576193 1.182835 -1.6342769
-0.79251301 1.1916802 -1.6349223
-0.78348631 1.1977069 -1.6352242
-0.77885348 1.2008014 -1.6349759
-0.76664299 1.2089612 -1.6330185
-0.75634325 1.2158434 -1.631633
-0.7313773 1.232513 -1.6322411
-0.71674258 1.2422861 -1.6320719
-0.67402601 1.2708235 -1.6280043
-0.65532643 1.283318 -1.6255536
-0.63759989 1.2951677 -1.621578
-0.58221674 1.3321679 -1.6160991
-0.55342394 1.3513653 -1.6255505
-0.53704572 1.3623409 -1.613111
-0.42180133 1.4393369 -1.6004595
-0.38890815 1.4612415 -1.619805
-0.33598483 1.4965641 -1.6255041
-0.32469428 1.5041044 -1.6252546
-0.31407773 1.5111997 -1.6233406
-0.27522528 1.5371509 -1.6212208
-0.24237394 1.5591305 -1.6075315
-0.17490828 1.6042469 -1.5867375
-0.23871803 1.5620663 -1.4490609
-0.24452043 1.5582651 -1.4255371
-0.2585659 1.5491596 -1.3378088
-0.28014064 1.5351167 -1.2212187
-0.30037236 1.521831 -1.1492676
-0.31103301 1.5148602 -1.1018392
-0.19885099 1.590176 -0.97226059
-0.16049767 1.6157597 -0.98103011
-0.15299475 1.6207807 -0.97755933
-0.14536524 1.6259181 -0.96389961
-0.11940742 1.6433631 -0.92826843
-0.20136559 1.5889831 -0.81641531
-0.23876953 1.5643408 -0.70910048
-0.19622838 1.5929565 -0.64240044
-0.20406544 1.5878766 -0.59326106
-0.21514952 1.5806446 -0.53891492
-0.2169404 1.5795584 -0.50371075
-0.2087338 1.5852091 -0.44902974
-0.21354532 1.5821865 -0.38804561
-0.2078414 1.5860965 -0.35561639
-0.076247811 1.6741729 -0.29077989
-0.069867253 1.6784155 -0.296554
-0.059946537 1.6850362 -0.29787022
-0.052628398 1.6899927 -0.27555248
-0.052612185 1.6900585 -0.25792694
-0.046900988 1.693994 -0.21886379
-0.059872031 1.6854191 -0.19109605
-0.088935494 1.6661611 -0.14313599
-0.12326908 1.6433876 -0.093995541
-0.15542209 1.6221774 -0.01049301
-0.16743338 1.6142423 0.016939402
-0.19651973 1.5949246 0.050675482
-0.19895291 1.5933146 0.055452734
-0.22873116 1.5735959 0.10868829
-0.25884843 1.553678 0.1707004
-0.26405847 1.5502932 0.20095292
-0.29748178 1.528116 0.24634656
-0.31176615 1.5186265 0.2620984
-0.34273362 1.498004 0.28023157
-0.35640407 1.4889035 0.28926781
-0.3662194 1.4823782 0.29857638
-0.38855314 1.467504 0.31127164
-0.41566193 1.4495139 0.34721985
-0.42655218 1.4422725 0.35709551
-0.43670297 1.4355323 0.36934444
-0.45674467 1.4222043 0.38702032
-0.47699368 1.4087327 0.40302053
-0.53930646 1.3671008 0.39617208
-0.62356544 1.3110821 0.47524992
-0.64997941 1.2935026 0.49408296
-0.75682914 1.2223567 0.55974746
-0.6723538 1.2792001 0.69867206
-0.81631345 1.1831142 0.71332145
-0.83144957 1.1730106 0.71454859
-0.91065836 1.1197418 0.59413278
-0.92134511 1.1126053 0.59405184
-0.9361434 1.1027238 0.5941776
-0.94233519 1.0985881 0.59381866
-0.95693624 1.0888375 0.59367049
-0.96627241 1.082603 0.59361506
-0.97053105 1.0797589 0.59351099
-0.97328025 1.0779231 0.59354615
-0.97560745 1.076369 0.59355414
-0.98771971 1.0682802 0.59331107
-1.0039937 1.0574124 0.59312236
-1.0068005 1.0555376 0.59298158
-1.0278959 1.0414472 0.59183669
-1.0368804 1.0354495 0.59242928
-1.039553 1.0336641 0.592188
-1.0456123 1.0296172 0.59199512
-1.0469435 1.0287281 0.59193957
-1.0601866 1.0198855 0.5921582
-1.0750312 1.0099709 0.59153211
-1.088262 1.0011362 0.59164429
-1.0908996 0.99937534 0.59180188
-1.0970715 0.99525404 0.59184349
-1.1031412 0.99119961 0.59143496
-1.1144416 0.98365378 0.59151554
-1.1196886 0.98014891 0.59117305
-1.1285056 0.97426075 0.59099078
-1.1328616 0.97135127 0.59077477
-1.1503612 0.95966637 0.5910157
-1.1515706 0.95885885 0.59103584
-1.1693945 0.94695467 0.59041297
-1.1778163 0.94132972 0.59004867
-1.1858742 0.93595028 0.59048879
-1.1990292 0.92716551 0.59037435
-1.2056469 0.92274547 0.59009564
-1.2156284 0.9160772 0.58914721
-1.2272551 0.90831429 0.58945286
-1.234885 0.90321982 0.5896492
-1.2403084 0.89959729 0.58933079
-1.242376 0.89821619 0.58920157
-1.2532687 0.89094096 0.58873689
-1.2586424 0.88735247 0.58871365
-1.2639494 0.88380986 0.58909857
-1.2721434 0.87833869 0.5892731
-1.2766402 0.87533408 0.58868313
-1.291093 0.86568302 0.58870447
-1.2963095 0.86219984 0.58878779
-1.3060714 0.85568011 0.58845365
-1.3200418 0.84635139 0.58851504
-1.3280823 0.84098011 0.58785713
-1.3411627 0.8322466 0.58822584
-1.3481674 0.82756805 0.58788598
-1.3582882 0.82080859 0.58751321
-1.3739597 0.8103441 0.58765912
-1.3835208 0.80395859 0.58738971
-1.3936325 0.79720646 0.58742535
-1.4026998 0.79114872 0.5864929
-1.4143219 0.78338867 0.58672702
-1.4200978 0.77953166 0.58673775
-1.4310973 0.7721864 0.58668339
-1.4397802 0.76638806 0.58663177
-1.4455661 0.76252401 0.58648622
-1.454172 0.75677472 0.58568299
-1.4628675 0.75096852 0.5857811
-1.4722805 0.74468422 0.5862509
-1.4821957 0.73806274 0.58610547
-1.4985566 0.72713697 0.58593965
-1.5023252 0.7246204 0.58592582
-1.5147178 0.71634382 0.58554304
-1.5190153 0.71347439 0.58565938
-1.5349265 0.70284855 0.58539367
-1.5384743 0.70047873 0.58514333
-1.5481136 0.69404143 0.58499014
-1.5530739 0.69072992 0.58523202
-1.5635678 0.68372178 0.58502948
-1.5758647 0.67550951 0.58475387
-1.5884972 0.66707253 0.58432031
-1.6716319 0.61191964 0.70027971
-1.6959093 0.59571332 0.70196593
-1.7692983 0.54632962 0.58117008
-1.7790163 0.53983873 0.58069837
-1.786501 0.53484237 0.58123529
-1.7940412 0.52980667 0.58102965
-1.8039799 0.52316934 0.58084559
-1.8153977 0.51554608 0.58122337
-1.8168156 0.51459879 0.58106339
-1.8262966 0.50826645 0.58064353
-1.8426919 0.49731785 0.58057594
-1.8481123 0.49369931 0.58090603
-1.8660202 0.48173976 0.5804913
-1.8676367 0.4806605 0.58054042
-1.8746412 0.47598204 0.58020616
-1.885596 0.4686645 0.5794903
-1.8938017 0.46318632 0.57989466
-1.8977025 0.46058124 0.57980704
-1.9027126 0.45723531 0.57970035
-1.9117136 0.45122373 0.57937968
-1.924005 0.44301549 0.57923067
-1.9252826 0.44216213 0.57915723
-1.9342744 0.43615696 0.57893348
-1.942899 0.4303993 0.57943249
-1.951396 0.42472434 0.579144
-1.9580473 0.42028171 0.57876801
-1.968627 0.41321337 0.57763469
-1.9841638 0.40284231 0.57889223
-2.0040674 0.38954908 0.57818031
-2.0098729 0.38567331 0.57847333
-2.0158052 0.38171086 0.57813478
-2.103159 0.32371995 0.68743241
-2.188612 0.26630828 0.57559741
-2.1997142 0.25889367 0.57532513
-2.2047563 0.25552723 0.57549679
-2.2135363 0.24966192 0.57472956
-2.2312465 0.23783696 0.57517219
-2.2517803 0.22412354 0.57466495
-2.2649491 0.21533033 0.57480383
-2.2795727 0.20556402 0.57443666
-2.3121493 0.18380916 0.57402706
-2.3316998 0.17075181 0.57335615
-2.3367469 0.1673798 0.57280743
-2.3510768 0.1578114 0.57299185
-2.3643432 0.14895308 0.57317638
-2.3672683 0.14700013 0.57328916
-2.3741124 0.1424275 0.57250428
-2.3887024 0.13268512 0.57264721
-2.3927059 0.13001108 0.57241595
-2.3964376 0.1275177 0.57199895
-2.4105663 0.11808372 0.57219601
-2.4123149 0.11691618 0.57224584
-2.5027897 0.056847751 0.68366659
-2.5919323 -0.0030373931 0.56869459
-2.6045327 -0.011448205 0.56976366
-2.6153016 -0.018644691 0.5680294
-2.6361847 -0.032587469 0.56884217
-2.6399336 -0.035090744 0.5688628
-2.6590533 -0.047859669 0.56837058
-2.663662 -0.050937355 0.56832242
-2.6739113 -0.057780147 0.56879878
-2.6816726 -0.062964261 0.56836081
-2.6976881 -0.073660791 0.56774259
-2.7102604 -0.082055509 0.56792498
-2.7159743 -0.085870206 0.56820381
-2.7301698 -0.095350862 0.56776369
-2.7499008 -0.10852695 0.56763065
-2.7627125 -0.11708391 0.56712687
-2.7731395 -0.12404627 0.56727374
-2.7823186 -0.13017988 0.56592298
-2.789777 -0.13516104 0.56572282
-2.8727498 -0.19024569 0.66883254
-2.9565837 -0.24655259 0.56461263
-2.9648275 -0.25205845 0.56435633
-2.9695745 -0.25522757 0.5645467
-2.9844265 -0.26514649 0.5641619
-3.0063286 -0.27977687 0.56259084
-3.0214951 -0.28990144 0.56360781
-3.0253062 -0.29244632 0.56364691
-3.0282259 -0.29439712 0.56323302
-3.0442283 -0.30508494 0.56261206
-3.0557976 -0.31281078 0.56258094
-3.0577455 -0.31411099 0.562675
-3.0683374 -0.32118309 0.56296563
-3.0844667 -0.33195448 0.56274462
-3.1010089 -0.3430028 0.56212962
-3.1061926 -0.34646595 0.56157935
-3.1111169 -0.34975493 0.56136763
-3.1161871 -0.35314071 0.56131732
-3.1337523 -0.36486804 0.56201887
-3.1522408 -0.3772161 0.56138587
-3.1626418 -0.3841635 0.5607419
-3.1674695 -0.38738656 0.56096375
-3.1871252 -0.40051198 0.56100798
-3.1898742 -0.40234745 0.56101692
-3.1989937 -0.40843701 0.56109464
-3.2045503 -0.41214895 0.56065249
-3.2307413 -0.42964172 0.55955863
-3.2439337 -0.43844867 0.56039393
-3.2503908 -0.44276166 0.56000149
-3.3409381 -0.50291705 0.6590867
-3.3578696 -0.51421106 0.66303897
-3.3929667 -0.53766131 0.65874064
-3.4928813 -0.60470295 0.55549371
-3.5008264 -0.61000514 0.55658305
-3.5014679 -0.61043382 0.55650032
-3.513835 -0.61869776 0.55464184
-3.5479219 -0.64149225 0.5443306
-3.5925195 -0.67139721 0.50456989
-3.6122546 -0.68461835 0.4908835
-3.6132493 -0.68529141 0.48799238
-3.657717 -0.71519601 0.42053989
-3.6632934 -0.71894789 0.41153553
-3.6655922 -0.7206248 0.36609593
-3.6601639 -0.7171979 0.30263725
-3.663645 -0.71964777 0.26251808
-3.6669538 -0.72191691 0.2433382
-3.6607888 -0.71788919 0.21480283
-3.6612945 -0.71838331 0.1646457
-3.6616304 -0.71862674 0.15853086
-3.6599667 -0.71755779 0.14512888
-3.6582501 -0.7165128 0.11263874
-3.6600134 -0.71775043 0.093357742
-3.6668665 -0.72244895 0.054198861
-3.6592829 -0.71753776 0.0051647425
-3.6641583 -0.72096717 -0.050472528
-3.6604993 -0.71865511 -0.092610657
-3.6587346 -0.71760774 -0.13461992
-3.6527505 -0.71378469 -0.190005
-3.6534882 -0.71433473 -0.20846123
-3.6543109 -0.7150023 -0.24632311
-3.6596372 -0.71862066 -0.26606241
-3.6621702 -0.72035038 -0.27829701
-3.6581457 -0.71776593 -0.31131953
-3.6583149 -0.71791363 -0.32243025
-3.6627064 -0.72100258 -0.37257838
-3.6786444 -0.73180962 -0.42518455
-3.6552935 -0.71642232 -0.49112403
-3.6554923 -0.71665192 -0.52214485
-3.6553833 -0.71661377 -0.5332514
-3.651504 -0.71422672 -0.59844905
-3.6515484 -0.71429765 -0.61168098
-3.6526015 -0.71504331 -0.62527978
-3.6495409 -0.7130934 -0.65533638
-3.6454222 -0.71039414 -0.67169493
-3.6434972 -0.70918429 -0.69592309
-3.6430149 -0.70893574 -0.71953154
-3.6422629 -0.70850253 -0.741606
-3.6416233 -0.70819438 -0.77970219
-3.6444094 -0.71010745 -0.7966001
-3.6501238 -0.71407557 -0.84537733
-3.6514518 -0.71525145 -0.93801343
-3.6493506 -0.71389627 -0.95334768
-3.6580167 -0.71986604 -1.0120187
-3.6474223 -0.71298885 -1.0752321
-3.6362941 -0.70569074 -1.1178501
-3.6378164 -0.70682633 -1.1559784
-3.6369188 -0.70623493 -1.1585513
-3.6413801 -0.70949507 -1.2486402
-3.6441884 -0.71157336 -1.3136922
-3.655139 -0.71901405 -1.3547784
-3.5928419 -0.67745113 -1.3666571
-0.54209441 1.3652363 0.39528325
-0.63265651 1.3049316 0.44965675
-0.65100551 1.2926691 0.44655696
-0.7426911 1.2312448 0.38262364
-0.76225251 1.2179381 0.30431005
-0.74226838 1.230973 0.20499322
-0.76462752 1.215808 0.12993488
-0.76621008 1.2146432 0.095330775
-0.76574504 1.2148987 0.077666491
-0.75533414 1.2216215 0.0041771531
-0.75844646 1.2194623 -0.021745145
-0.76166904 1.2172179 -0.051349789
-0.7310487 1.2373917 -0.1390042
-0.71564817 1.2475877 -0.16721588
-0.71326447 1.2490196 -0.21843176
-0.7150594 1.2477486 -0.24161601
-0.69435388 1.2613564 -0.31174394
-0.7026661 1.2555096 -0.40663114
-0.69899178 1.2577045 -0.4895525
-0.70767725 1.2517097 -0.55202317
-0.6963982 1.259074 -0.6057235
-0.69790077 1.2579852 -0.63304198
-0.70113206 1.2556496 -0.69005895
-0.68437749 1.2665777 -0.7733885
-0.67286086 1.2739652 -0.87048459
-0.68860918 1.2632109 -0.94679105
-0.68771344 1.2637861 -0.95414221
-0.69353426 1.2597709 -0.9952358
-0.69069839 1.2615576 -1.0295507
-0.67833418 1.2697111 -1.0625144
-0.67416465 1.2723176 -1.1194669
-0.5737434 1.3391526 -1.1909623
-0.69619656 1.2572216 -1.2425226
-0.70278603 1.2526665 -1.2921354
-0.686234 1.2634749 -1.3705125
-0.66296977 1.2788384 -1.4254987
-0.63444191 1.2977583 -1.4671581
-0.53018117 1.3674008 -1.4605926
-0.51162553 1.3798289 -1.4486452
-0.48779297 1.3957556 -1.4447495
-0.39646125 1.4571592 -1.3117093
-0.39463949 1.4584744 -1.2800641
-0.39512956 1.4581983 -1.2636763
-0.39758921 1.4566467 -1.2345741
-0.40159655 1.4540443 -1.2109331
-0.40330255 1.4529362 -1.2010169
-0.41107011 1.4478226 -1.1774838
-0.4442848 1.4270459 -0.72785759
-0.45107734 1.4225365 -0.71937585
-0.44918978 1.4237804 -0.72465432
-0.43992364 1.4298768 -0.7539109
-0.43647778 1.4320767 -0.78636593
-0.37481987 1.4730439 -0.85234505
-0.41686153 1.4444633 -1.0146755
-0.42171323 1.4411871 -1.0262982
-0.42580342 1.438302 -1.0756234
-0.42225909 1.4405324 -1.1193361
-0.40838242 1.4508893 -0.76983124
-0.28229713 1.5354567 -0.65074861
-0.27880824 1.5379734 -0.59080529
-0.26715648 1.54582 -0.56969351
-0.26189351 1.54958 -0.49098259
-0.25640261 1.5534792 -0.41641539
-0.26025987 1.550976 -0.39319643
-0.2537992 1.5554771 -0.333307
-0.25263584 1.5562799 -0.32500499
-0.25310802 1.5561793 -0.25615418
-0.24226439 1.5635281 -0.22163565
-0.24548638 1.5615549 -0.16447933
-0.24482608 1.5620512 -0.14672875
-0.25105393 1.5581319 -0.069960833
-0.24448693 1.5628085 0.023363173
-0.27428627 1.5430669 0.073837101
-0.29715371 1.5279599 0.12612411
-0.30136454 1.5252056 0.14456472
-0.311059 1.5188149 0.1711559
-0.34625494 1.4954641 0.21983781
-0.35838199 1.4874116 0.23442963
-0.38488281 1.4697866 0.2573199
-0.39668071 1.4619558 0.2725248
-0.39708102 1.4616904 0.27313641
-0.4112612 1.452309 0.30122545
-0.47803426 1.4078416 0.3401362
-0.51158583 1.3855271 0.36905691
-0.52894187 1.3739775 0.38192573
-0.53506219 1.3699121 0.38882467
