# .PCD v0.7 - Point Cloud Data file format
VERSION 0.7
FIELDS x y z
SIZE 4 4 4
TYPE F F F
COUNT 1 1 1
WIDTH 871
HEIGHT 1
VIEWPOINT 0 0 0 1 0 0 0
POINTS 871
DATA ascii
1.535912 2.6438346 -1.5718608
1.5633254 2.6069789 -1.5853781
1.573024 2.5938756 -1.5867193
1.6019419 2.5548453 -1.5928435
1.6164523 2.5351338 -1.5891052
1.6343287 2.5109234 -1.5884447
1.6505811 2.4889579 -1.5902905
1.6565648 2.4808137 -1.5879028
1.6651597 2.4691222 -1.5848373
1.6973372 2.425369 -1.574293
1.7258247 2.3870993 -1.5899512
1.7322347 2.3784895 -1.5935483
1.7433908 2.3632388 -1.5855346
1.7965255 2.2905138 -1.5426263
1.8085511 2.2740555 -1.5329783
1.8128148 2.2680209 -1.5188708
1.817891 2.2608764 -1.5042217
1.8906807 2.1612873 -1.4474493
1.8982183 2.1510658 -1.4464679
1.9186605 2.1234193 -1.4477999
1.9244897 2.1155753 -1.4502919
1.9405822 2.0939503 -1.4587919
1.9505655 2.0803094 -1.4519757
1.9585882 2.069391 -1.4488467
1.9870738 2.0308652 -1.4506248
2.0340276 1.9694233 -1.5641445
2.0354505 1.96784 -1.5825415
2.040585 1.9610479 -1.5910325
2.0561771 1.9400978 -1.5993812
2.0574551 1.93837 -1.5994978
2.0640275 1.9294815 -1.5999434
2.0672214 1.925144 -1.5991819
2.1395214 1.8272474 -1.5976335
2.1493669 1.8139766 -1.6006731
2.1556797 1.8054644 -1.6024361
2.1726975 1.7824199 -1.6019747
2.1762938 1.7773948 -1.5935675
2.1801405 1.7719587 -1.5812727
2.2147753 1.7229869 -1.469232
2.2494793 1.6757088 -1.4530406
2.2647176 1.6551163 -1.4549146
2.2889524 1.6222174 -1.4498689
2.2970371 1.6112891 -1.4507203
2.316453 1.5848832 -1.4440655
2.3252287 1.5730064 -1.4441891
2.3722262 1.5093428 -1.4417257
2.3831244 1.4945675 -1.4404855
2.4079716 1.4608288 -1.4348665
2.4421818 1.4142673 -1.4212807
2.4527526 1.3998572 -1.4158568
2.4664316 1.3810947 -1.4026648
2.4725337 1.3727443 -1.3978255
2.5099783 1.3215059 -1.3681933
2.5214756 1.3058155 -1.3613747
2.5257359 1.3000178 -1.3597382
2.5637815 1.2480161 -1.3328165
2.6190522 1.172381 -1.2888941
2.6260304 1.1629685 -1.2906945
2.6528153 1.1270919 -1.3110948
2.657974 1.1202486 -1.3185943
2.6717322 1.1022365 -1.351401
2.6801734 1.0913354 -1.3795668
2.6997714 1.0646305 -1.3701237
2.7349765 1.0169258 -1.3674365
2.7386196 1.0119922 -1.3673204
2.7491612 0.99774039 -1.3682724
2.7708564 0.96854353 -1.3774177
2.7726626 0.96611965 -1.3785557
2.7840137 0.9508003 -1.3810211
2.8151431 0.90856123 -1.3755885
2.8249402 0.89527392 -1.3742186
2.8390236 0.87623596 -1.3756011
2.8617694 0.8453871 -1.3724284
2.8724191 0.83093905 -1.370692
2.8828673 0.81674731 -1.3680885
2.9115798 0.77801967 -1.3755288
2.928925 0.75460994 -1.3792391
2.931685 0.75088227 -1.3796841
2.9401562 0.73941672 -1.3797618
2.9494123 0.72679782 -1.3749568
2.9544759 0.71991146 -1.373234
2.9602809 0.71203184 -1.3720794
2.9632373 0.70801985 -1.3715382
2.9816167 0.68315363 -1.3722199
2.9998879 0.65853298 -1.378239
3.0068002 0.64923823 -1.3815575
3.0353835 0.61061752 -1.3853372
3.0437868 0.59931588 -1.3892758
3.057049 0.58044875 -1.3402047
3.147675 0.4577615 -1.3395374
3.1514306 0.45266756 -1.3389815
3.1612551 0.43929169 -1.3348445
3.1711721 0.42583093 -1.3328851
3.1820874 0.41092458 -1.3258567
3.2140124 0.3672615 -1.3018081
3.2823403 0.27367237 -1.2429123
3.3111172 0.23508754 -1.2626894
3.3224339 0.22007161 -1.2789367
3.3304496 0.20936364 -1.2865522
3.3585398 0.17231631 -1.3389436
3.3658817 0.16274118 -1.3584189
3.381099 0.14216781 -1.3597825
3.3902683 0.1297344 -1.3586279
3.408617 0.10481028 -1.3539885
3.4396148 0.060754135 -1.2415243
3.4387231 0.059499845 -1.1095022
3.5304193 -0.065384455 -1.0687006
3.5433774 -0.083232351 -1.0522183
3.6063807 -0.16882963 -1.0353827
3.6153107 -0.18096474 -1.0328557
3.6614244 -0.2434257 -1.0307258
3.7077069 -0.30917031 -0.86472219
3.6375315 -0.21549731 -0.793975
3.5849297 -0.14410251 -0.80422139
3.5727093 -0.12764859 -0.79948556
3.5702667 -0.12469793 -0.78040695
3.5658956 -0.11910479 -0.76304042
3.5303173 -0.07234069 -0.68816125
3.5164919 -0.054389112 -0.64724088
3.4698992 0.0056394786 -0.48411512
3.4173107 0.076698482 -0.47733167
3.3798163 0.12817541 -0.51610869
3.3775563 0.13121849 -0.51525688
3.3328395 0.19189647 -0.52316272
3.3127804 0.21897233 -0.51905107
3.3075809 0.22598362 -0.51760989
3.3004355 0.23556867 -0.51291656
3.2356942 0.32276636 -0.48939872
3.2291026 0.33178437 -0.49451667
3.202395 0.37024769 -0.61845952
3.2073331 0.36390439 -0.63676077
3.2253954 0.34062496 -0.69955105
3.2287679 0.33623272 -0.70882118
3.2221687 0.34588352 -0.74731654
3.2240188 0.34514698 -0.84215558
3.331382 0.20008793 -0.8567282
3.3588099 0.16244352 -0.82900429
3.3926921 0.11534804 -0.76295316
3.4235911 0.075276285 -0.85704899
3.4393008 0.056426585 -0.98660314
1.5459073 2.629432 -1.5250359
1.5205948 2.6605599 -1.3568335
1.5096071 2.675303 -1.3498416
1.4450834 2.7625692 -1.3458076
1.4376383 2.7727356 -1.3505417
1.4099529 2.8102577 -1.3530142
1.3729491 2.860446 -1.3583111
1.3663716 2.8692336 -1.3520912
1.3530712 2.8869917 -1.3389066
1.334126 2.9124618 -1.3295275
1.2749648 2.9925427 -1.3294346
1.2510152 3.024754 -1.3182967
1.2396472 3.0400486 -1.3132533
1.2466419 3.0292819 -1.2436277
1.1827929 3.1134622 -1.1230395
1.2180107 3.063375 -0.99349093
1.2315855 3.0426288 -0.86632061
1.2206707 3.05655 -0.8205533
1.215466 3.0628226 -0.77909315
1.2179434 3.0571468 -0.65453905
1.2242358 3.0478222 -0.61123657
1.2220309 3.0494723 -0.53966624
1.2116053 3.0629883 -0.5076704
1.2100244 3.0632665 -0.4078024
1.2175353 3.0513642 -0.31472945
1.2049391 3.0677178 -0.27733809
1.2082665 3.0622971 -0.22816691
1.1112583 3.1920257 -0.14312735
1.0891314 3.2227898 -0.18671104
1.0849624 3.2284386 -0.18701674
1.0882983 3.2230263 -0.1389076
1.0850832 3.2252109 -0.02265653
1.0890877 3.2188056 0.030171603
1.0898015 3.2177863 0.033004701
1.0886424 3.2171512 0.15124717
1.0859003 3.2207513 0.15723434
1.085417 3.2213826 0.15846291
1.0820773 3.2257497 0.16670147
1.0796366 3.2287045 0.18542191
1.0782728 3.2302098 0.20369199
1.0795467 3.2278745 0.2364721
1.0706844 3.2388949 0.28881273
1.0800211 3.2251489 0.34822568
1.080291 3.2245934 0.358417
1.080281 3.2245369 0.36217579
1.079947 3.2246511 0.3802987
1.0791109 3.2253959 0.40106544
1.079793 3.2238517 0.43436465
1.0754595 3.2289255 0.47685769
1.0756612 3.2283425 0.49348786
1.0762432 3.227334 0.50532281
1.0757182 3.2276347 0.52732134
1.0613582 3.2455959 0.60652196
1.0808721 3.2187612 0.6290673
1.0868657 3.2106407 0.62947512
1.0899971 3.2064033 0.62939203
1.0920732 3.2035911 0.62948418
1.0955369 3.198904 0.62939787
1.0983095 3.1951656 0.62861717
1.1054785 3.1854961 0.62675202
1.1103058 3.1792676 0.61035359
1.1101797 3.1795714 0.60321081
1.111191 3.1785998 0.58187819
1.1112976 3.1794214 0.53008068
1.1127784 3.1777658 0.51135349
1.102071 3.1931963 0.46113876
1.1064093 3.1882281 0.41263452
1.1763206 3.0953207 0.31998572
1.1939127 3.0714817 0.32136551
1.2052596 3.0560808 0.32358101
1.214391 3.0436783 0.32582375
1.2505643 2.9942963 0.34817013
1.2743227 2.9620869 0.35079244
1.2957139 2.9330924 0.35288301
1.319078 2.9015782 0.34684464
1.3414295 2.8712535 0.35056368
1.3825073 2.8155272 0.35708359
1.4146378 2.7686827 0.53686118
1.4150724 2.767777 0.55387759
1.4163811 2.7656591 0.572456
1.4186397 2.7625632 0.57453573
1.4381268 2.7362449 0.57130015
1.5133545 2.6343434 0.57508087
1.5246577 2.6193745 0.55730295
1.5516231 2.5833402 0.53223884
1.5825309 2.5421362 0.49824777
1.6007389 2.5177224 0.48573628
1.6147763 2.4989634 0.47273144
1.6481067 2.4541149 0.45831469
1.6848019 2.4044206 0.45950463
1.7573926 2.306057 0.46499351
1.8028315 2.243618 0.51493669
1.8161708 2.2249274 0.5489428
1.8558804 2.1705201 0.58408594
1.8688499 2.1527448 0.59584332
1.8903091 2.1236284 0.59951198
1.9112562 2.0951772 0.60468423
1.9259303 2.0753417 0.60318542
1.9445921 2.0503163 0.5905236
1.9626744 2.0261691 0.572855
1.9717311 2.0142014 0.55720329
1.9848083 1.9968555 0.53810954
2.0615571 1.8943193 0.46549878
2.0890913 1.856465 0.49676314
2.1035409 1.8369473 0.49451926
2.1183274 1.8168712 0.49777833
2.1276879 1.8041565 0.50012279
2.1542664 1.7684176 0.48733076
2.1576624 1.7638484 0.48583326
2.1644883 1.7546468 0.48379675
2.188591 1.7220192 0.48384658
2.213335 1.6887423 0.47218099
2.2172594 1.6834739 0.46982816
2.2432013 1.6485827 0.45778391
2.2572112 1.6297079 0.45296994
2.2660642 1.6177727 0.45039418
2.278862 1.600446 0.45054182
2.2974005 1.5755931 0.43759385
2.3053348 1.5649257 0.43369171
2.3220155 1.5424979 0.42555299
2.3656392 1.4836982 0.41209957
2.3937843 1.4456075 0.41168311
2.4174366 1.4132462 0.43019083
2.4215446 1.4075878 0.43542185
2.4252987 1.4024478 0.43853638
2.4298146 1.396313 0.43972263
2.4519377 1.3662491 0.44600573
2.4612732 1.3535846 0.44748124
2.5227535 1.2707406 0.42720959
2.5496805 1.2340318 0.44112739
2.558094 1.222698 0.43817046
2.6368871 1.1158546 0.44816455
2.6484849 1.0999098 0.46133158
2.6534674 1.0931699 0.46108326
2.6767719 1.0615611 0.46446136
2.6972258 1.0339074 0.46267095
2.7140231 1.0111984 0.4611508
2.7660718 0.94075477 0.46054122
2.7699368 0.93551958 0.46071884
2.7969022 0.89889932 0.46709248
2.8414879 0.83734357 0.53160834
2.8582125 0.81479371 0.52681983
2.8871274 0.77580023 0.51896131
2.8954532 0.76450896 0.52008665
2.8997786 0.75862861 0.52145112
2.9042044 0.75260484 0.52321911
2.9342613 0.71167624 0.53621364
3.0375392 0.57187068 0.53646791
3.0422733 0.56519353 0.55089676
3.0443664 0.56223035 0.55786026
3.0527155 0.55050433 0.58062637
3.0687079 0.52855599 0.59673619
3.0791049 0.51435542 0.60354125
3.0871484 0.50351608 0.60093546
3.1066952 0.4771156 0.59777701
3.1355472 0.43781081 0.61118221
3.152787 0.41458318 0.6053412
3.2114563 0.33551985 0.58636713
3.2154622 0.33007187 0.58772993
3.2272809 0.31399256 0.59209538
3.2346332 0.30402866 0.59270692
3.2964833 0.22195554 0.50423014
3.3233638 0.18536314 0.51527369
3.3362532 0.16795835 0.51298523
3.3620207 0.13352603 0.48897073
3.4018271 0.079645053 0.48885235
3.4174335 0.058315873 0.49978265
3.4347939 0.034794092 0.50096798
3.4616354 -0.001795575 0.51469779
3.4900675 -0.039844632 0.49122784
3.5012259 -0.054832906 0.4849799
3.5349605 -0.10007596 0.46239641
3.5606575 -0.13477683 0.45790246
3.5720565 -0.15024707 0.46006504
3.5860519 -0.16922709 0.46196321
3.6379948 -0.24066365 0.52228379
3.6618485 -0.27440193 0.6000073
3.7087522 -0.3374449 0.57601178
3.7371809 -0.37577873 0.56805193
3.755198 -0.40017009 0.56819069
3.7714231 -0.42219737 0.57165194
3.8091464 -0.47424209 0.62426972
3.8791549 -0.56822109 0.58205199
3.8866856 -0.57846546 0.5847609
3.9244611 -0.62962431 0.58608592
3.9531507 -0.6685816 0.59262633
3.9609451 -0.67910206 0.59100032
3.9968543 -0.72797465 0.60520017
4.0229487 -0.76366234 0.62477314
4.0751586 -0.83425295 0.62035561
4.0980854 -0.86533844 0.62309182
4.1055684 -0.87549305 0.62445259
4.1103334 -0.88196683 0.6257174
4.1182356 -0.89265132 0.62506211
4.1226878 -0.89868534 0.62545478
4.1672177 -0.95893931 0.62420416
4.1732655 -0.9671433 0.62512946
4.1913266 -0.99128079 0.60849118
4.1969318 -0.99868274 0.59853053
4.2944198 -1.1305583 0.59381378
4.368536 -1.2298949 0.54073966
4.4013042 -1.2746906 0.56430447
4.4117589 -1.2889614 0.57067609
4.4185872 -1.2983024 0.57594633
4.4637828 -1.3595539 0.57986081
4.480073 -1.381722 0.58612919
4.5318613 -1.4522752 0.61028922
4.5421848 -1.4662912 0.61254454
4.5683694 -1.5019302 0.62299776
4.6046858 -1.5510764 0.62228549
4.611598 -1.5604368 0.62249827
4.6261163 -1.5801197 0.62411797
4.6421375 -1.6018238 0.6250633
4.6512022 -1.6140695 0.623698
4.6623182 -1.6291379 0.62484241
4.665616 -1.6336074 0.62517238
4.6859436 -1.6611129 0.6245755
4.6894779 -1.6659045 0.62500274
4.6990433 -1.6788312 0.62384355
4.7117805 -1.6960642 0.62337148
4.7167959 -1.7028637 0.62393534
4.7238674 -1.7124542 0.62490034
4.7270422 -1.7167357 0.62404644
4.7377639 -1.7312324 0.62318671
4.7470183 -1.7437876 0.62467682
4.7505455 -1.7485659 0.62487555
4.7612605 -1.7630699 0.62485528
4.7679482 -1.772126 0.62505531
4.7760744 -1.7831242 0.62496901
4.7794085 -1.7876351 0.62482548
4.7941289 -1.8075533 0.62440884
4.7995353 -1.8148801 0.62487614
4.8105245 -1.8297575 0.62499189
4.8131828 -1.8333497 0.62465835
4.8235073 -1.847326 0.62467957
4.8242741 -1.848362 0.62458432
4.8281932 -1.8536623 0.62433267
4.8332243 -1.8604779 0.62461734
4.839119 -1.8684629 0.62490499
4.8447213 -1.8760334 0.62422001
4.8556423 -1.8908126 0.62400484
4.8674273 -1.9067799 0.6247896
4.8729815 -1.9142964 0.62470686
4.8736682 -1.9152249 0.62465119
4.8779597 -1.9210321 0.62454522
4.8814168 -1.9257103 0.62445557
4.8865595 -1.9326774 0.62477946
4.888135 -1.9348091 0.62470841
4.8955474 -1.9448459 0.624879
4.9035573 -1.9556692 0.62386549
4.9135084 -1.9691547 0.62468076
4.9243832 -1.983858 0.62374985
4.9312773 -1.9932091 0.62479925
4.9388342 -2.0034256 0.62409902
4.9427361 -2.0087118 0.62432003
4.9457531 -2.0128031 0.62470007
4.9571323 -2.0281856 0.62360466
4.9614401 -2.0340261 0.62412047
4.9668446 -2.0413449 0.62425995
4.9703674 -2.0461097 0.62406623
4.9728465 -2.0494628 0.62392282
4.9845576 -2.065326 0.6244992
4.9872913 -2.0690289 0.62459469
4.9957204 -2.0804336 0.6243335
5.0048513 -2.0927932 0.62431598
5.0072641 -2.0960622 0.62449837
5.0142131 -2.1054628 0.62416899
5.0158129 -2.1076274 0.62410712
5.0180111 -2.1106017 0.62403333
5.0268207 -2.1225386 0.62469447
5.0355396 -2.1343396 0.62459743
5.0360794 -2.1350698 0.62460506
5.0395203 -2.1397202 0.62421584
5.0537796 -2.1590049 0.62329233
5.0662899 -2.1759641 0.62462461
5.0730009 -2.185034 0.62382352
5.0803599 -2.1949828 0.62316012
5.0874877 -2.2046344 0.62333477
5.1020451 -2.2243605 0.62443709
5.1056733 -2.2292674 0.62419975
5.1145372 -2.241272 0.6245532
5.1213808 -2.2505312 0.62430656
5.1340489 -2.2676818 0.62443316
5.1394863 -2.2750423 0.62443817
5.1456342 -2.2833567 0.62402368
5.150372 -2.2897756 0.62434101
5.1569138 -2.2986324 0.62444365
5.1610122 -2.3041792 0.62438464
5.1623511 -2.3059893 0.62424839
5.1716962 -2.3186407 0.62433684
5.173934 -2.3216696 0.6243118
5.1829352 -2.3338478 0.62399673
5.1964335 -2.3521085 0.62339568
5.1980343 -2.3542738 0.62331223
5.2076535 -2.3673007 0.62363768
5.2265463 -2.3928783 0.62382662
5.241704 -2.4133997 0.6240108
5.2682343 -2.4493074 0.62377012
5.2722011 -2.4546609 0.6228888
5.2863345 -2.473783 0.62237132
5.2968407 -2.4879937 0.62180948
5.3032918 -2.4967051 0.62065852
5.3184519 -2.5172124 0.61993492
5.3225927 -2.5228162 0.61985242
5.338192 -2.5439863 0.6227566
5.3431287 -2.5506518 0.62184834
5.3574896 -2.570085 0.62150168
5.363122 -2.5777252 0.62236583
5.371232 -2.5887275 0.62369704
5.3796206 -2.6000819 0.62363803
5.3849225 -2.607265 0.62397969
5.3975182 -2.6243165 0.62406981
5.4009042 -2.6289015 0.62413275
5.4111795 -2.6428049 0.62384343
5.4300609 -2.6683657 0.62394452
5.4514475 -2.6972725 0.62166393
5.4586096 -2.7070041 0.62364388
5.4704781 -2.7230775 0.62404656
5.4958291 -2.7573905 0.62387216
5.4994516 -2.762296 0.62398016
5.4997544 -2.7627058 0.62398648
5.5193782 -2.7892334 0.62205207
5.5293131 -2.8027141 0.62377393
5.5348082 -2.8101478 0.62356532
5.5447664 -2.8236361 0.6239984
5.5537167 -2.8357329 0.6229918
5.5593271 -2.843334 0.62335551
5.5728912 -2.8616984 0.62354672
5.5811162 -2.8728337 0.62364244
5.5883355 -2.8826063 0.62363768
5.5907907 -2.8859086 0.62250626
5.6934566 -3.0237939 0.56419075
5.6981921 -3.0303614 0.57264888
5.6988697 -3.0313005 0.57384372
5.7012467 -3.0345817 0.57722557
5.7117205 -3.0488839 0.58393216
5.7509394 -3.1025677 0.61584091
5.7969956 -3.1670103 0.72845054
5.8100195 -3.1850202 0.74884629
5.8213444 -3.200887 0.77764678
5.8297758 -3.2126729 0.79764867
5.8401322 -3.2270529 0.81702089
5.8482351 -3.2382119 0.82727587
5.8508964 -3.2416487 0.81838655
5.9607019 -3.3896024 0.78170896
5.9685693 -3.400368 0.78795028
5.9765892 -3.4113171 0.79295814
5.9836493 -3.420975 0.79837179
5.9891138 -3.428442 0.80214989
5.9945865 -3.4359207 0.8059262
5.9989004 -3.4418144 0.8088026
6.0042872 -3.4491758 0.81255257
6.0096827 -3.4565487 0.81630158
6.0150871 -3.4639344 0.82004857
6.0558276 -3.5202069 0.88036978
6.0803404 -3.5529716 0.85802925
6.0813389 -3.5543146 0.85755551
6.0851946 -3.5594971 0.85559452
6.0861244 -3.5607462 0.855088
6.1182146 -3.6036632 0.82708049
6.1418238 -3.6348584 0.78618824
6.166286 -3.6675601 0.76411867
6.1741481 -3.6780248 0.75458312
6.1981258 -3.7100925 0.73371899
6.198894 -3.7111254 0.73331761
6.1988659 -3.7110679 0.73227203
6.2618332 -3.7942247 0.62081885
6.3127289 -3.8631518 0.6225493
6.3131261 -3.8636835 0.62224865
6.3457046 -3.9072039 0.59118736
6.3616133 -3.9286559 0.58678532
6.3769083 -3.948997 0.56730354
6.4022188 -3.9828041 0.54294825
6.4173346 -4.0030146 0.52948964
6.430325 -4.0203824 0.51787889
6.4515271 -4.048522 0.48782846
6.4796667 -4.0862584 0.46883616
6.4992838 -4.1122603 0.43916807
6.5034294 -4.1177354 0.43182257
6.5416174 -4.1687322 0.39452419
6.5864677 -4.2285461 0.34640768
6.6111617 -4.2615318 0.32274285
6.6291742 -4.285521 0.30165938
6.6505713 -4.3139939 0.27532879
6.6564283 -4.3217649 0.26686624
6.6742325 -4.3455439 0.24966392
6.698595 -4.377943 0.21862009
6.7083745 -4.3910422 0.21117261
6.7367158 -4.42905 0.19205979
6.7544317 -4.4523454 0.15530077
6.7627134 -4.4632339 0.13806
6.771347 -4.4746823 0.1252625
6.7799973 -4.4861431 0.11189917
6.8114624 -4.5282044 0.083439052
6.8370028 -4.5624685 0.066876352
6.8791623 -4.6187057 0.022286832
6.9013681 -4.6482663 -0.0044402182
6.9540424 -4.7184334 -0.065306842
6.9531918 -4.7165685 -0.10355979
7.0163069 -4.7997894 -0.22232242
7.00211 -4.7786188 -0.32708094
7.0369139 -4.8240552 -0.41693032
7.1246896 -4.9425035 -0.43669823
7.0800314 -4.8807344 -0.50739372
7.0263667 -4.8082733 -0.49767053
6.9701142 -4.7323189 -0.4874416
6.9107208 -4.6521173 -0.47694808
6.8571901 -4.5776763 -0.58312964
6.851727 -4.5690188 -0.65084076
6.8698688 -4.5921803 -0.72570598
6.8709269 -4.5923033 -0.7959823
6.8709545 -4.591013 -0.86716616
6.8797102 -4.601429 -0.94418645
6.8789477 -4.5990987 -1.013845
6.8844137 -4.6050324 -1.09243
6.8148842 -4.5092158 -1.1835668
6.8275709 -4.5244517 -1.2874777
6.8781624 -4.5907869 -1.4026495
6.8837328 -4.5966973 -1.4900596
6.8707829 -4.5793433 -1.4806588
6.7641449 -4.435092 -1.4754151
6.679657 -4.3195982 -1.5359008
6.6701365 -4.3061624 -1.5653046
6.6254501 -4.2443609 -1.6357319
6.6163235 -4.2316895 -1.6527219
6.5983319 -4.2044096 -1.8096745
6.5556955 -4.1465311 -1.8184947
6.5413723 -4.1271157 -1.8199106
6.5068932 -4.0806947 -1.8064615
6.4731827 -4.0347242 -1.8246462
6.4489288 -4.0017729 -1.8310963
6.406146 -3.9441192 -1.8172106
6.3538504 -3.8732572 -1.8211262
6.3491859 -3.8668902 -1.8239435
6.3456635 -3.8621762 -1.8210541
6.3415899 -3.8567436 -1.8166927
6.336669 -3.8501906 -1.8108608
6.2866516 -3.7828503 -1.7912921
6.2635059 -3.7511828 -1.8093514
6.2571764 -3.7426023 -1.8100431
6.2498312 -3.7326646 -1.8097494
6.2367673 -3.7149503 -1.8113966
6.2212653 -3.694073 -1.8056679
6.2141891 -3.6845081 -1.8049287
6.2004189 -3.6658678 -1.8049623
6.1835456 -3.6429882 -1.8070737
6.1727548 -3.6284077 -1.8056527
6.1510334 -3.5991046 -1.8003085
6.1101108 -3.5436769 -1.8021009
6.0938225 -3.5216246 -1.8023189
6.0754824 -3.4969881 -1.7921485
6.0576191 -3.4728584 -1.7894009
6.0468073 -3.458267 -1.7870858
6.0403042 -3.4494662 -1.7869364
6.0335836 -3.4403946 -1.785571
6.0219355 -3.4246316 -1.785376
6.0049276 -3.4015667 -1.7876559
6.0010886 -3.3963864 -1.7867471
5.993238 -3.3858232 -1.7833294
5.9757309 -3.3621476 -1.7821213
5.9593072 -3.34007 -1.7738447
5.9466505 -3.3229816 -1.7714775
5.9208164 -3.2881455 -1.7643132
5.9045696 -3.266067 -1.7689204
5.8896275 -3.2458625 -1.7677405
5.8670597 -3.215348 -1.7659398
5.8608503 -3.2069802 -1.7639318
5.8093166 -3.1391418 -1.6609826
5.7845526 -3.1056523 -1.6592567
5.7784314 -3.0973899 -1.6579946
5.7760968 -3.0942478 -1.6570232
5.7675934 -3.0830202 -1.6418644
5.7623897 -3.0761063 -1.6348742
5.7100186 -3.0062742 -1.5780603
5.6888642 -2.9778283 -1.5678959
5.6033792 -2.8607917 -1.638763
5.5927935 -2.8461719 -1.6543223
5.5782938 -2.8265092 -1.6562134
5.5700068 -2.8152869 -1.6564847
5.5615582 -2.803864 -1.6557759
5.5240955 -2.7531478 -1.6560453
5.5154977 -2.7415853 -1.651993
5.5084777 -2.7321947 -1.6459738
5.5327377 -2.768482 -1.4610338
5.5279584 -2.7622299 -1.4493809
5.4603782 -2.6713762 -1.4158313
5.4507465 -2.6582222 -1.4220711
5.4150829 -2.6094048 -1.4511379
5.3724251 -2.55094 -1.4898192
5.3351068 -2.5000405 -1.5104486
5.3300648 -2.4932251 -1.5098968
5.3142891 -2.4720826 -1.4985425
5.3051724 -2.4599886 -1.4853106
5.2578478 -2.3978162 -1.3840477
5.2493181 -2.3864138 -1.3763282
5.2445421 -2.3801258 -1.3668488
5.1500163 -2.2522664 -1.3617859
5.1472607 -2.2485275 -1.3622317
5.1450558 -2.2467551 -1.2972267
5.1421475 -2.244199 -1.2231803
5.1495543 -2.2558763 -1.1346234
5.1496115 -2.2566841 -1.0954156
5.1465144 -2.253058 -1.0650703
5.1290207 -2.2306156 -0.99865544
5.1257029 -2.2262831 -0.99017012
5.120492 -2.2199955 -0.94908571
5.1439896 -2.2546904 -0.79418886
5.1378574 -2.2466066 -0.782534
5.1284466 -2.2344098 -0.75347728
5.125381 -2.2303913 -0.74643993
5.1173239 -2.2199218 -0.7229836
5.1133909 -2.2147448 -0.71513253
5.1108751 -2.2115836 -0.70202327
5.0581651 -2.1421978 -0.59664428
5.0260649 -2.0989556 -0.58538646
5.0029221 -2.0677798 -0.57729107
4.995038 -2.0571578 -0.57458758
4.9177041 -1.9513395 -0.6355443
4.9065032 -1.9359242 -0.64914393
4.8854098 -1.9071233 -0.66244006
4.8659716 -1.8776842 -0.8301484
4.8620667 -1.872077 -0.84739876
4.8457685 -1.8484232 -0.93279636
4.8475432 -1.8505678 -0.94661689
4.8420105 -1.8427143 -0.96616781
4.8347874 -1.8313304 -1.0523033
4.8325605 -1.8278965 -1.0748183
4.8314476 -1.8257002 -1.1118112
4.8318777 -1.8260105 -1.1264248
4.8318057 -1.8251361 -1.1680771
4.8321981 -1.8247066 -1.219594
4.8326335 -1.8250473 -1.2329427
4.8354268 -1.8282709 -1.2628504
4.8310585 -1.8217869 -1.293465
4.8238344 -1.8105747 -1.3703849
4.8242702 -1.8102351 -1.4202317
4.7791309 -1.7478918 -1.4867731
4.7661095 -1.7279785 -1.6094558
4.76051 -1.7202723 -1.6162572
4.7542644 -1.7117541 -1.6196765
4.7364206 -1.6872979 -1.6358802
4.7218585 -1.6675264 -1.639094
4.7047586 -1.6443303 -1.6417354
4.6876254 -1.6211395 -1.6416464
4.6806335 -1.6116763 -1.6415951
4.6708298 -1.5983865 -1.6425871
4.6690092 -1.5959237 -1.642504
4.665441 -1.5911046 -1.641928
4.6613798 -1.5856575 -1.6392304
4.6584158 -1.5818136 -1.6302276
4.6488037 -1.5692031 -1.6087118
4.5911827 -1.4917748 -1.5781624
4.5795174 -1.4758586 -1.5848881
4.5717516 -1.4654022 -1.5819007
4.5282216 -1.407012 -1.5533001
4.5196805 -1.3955046 -1.5503906
4.5018167 -1.3714931 -1.5412832
4.5052519 -1.3766326 -1.5150508
4.5071235 -1.3794218 -1.5013211
4.4768696 -1.3407745 -1.3776493
4.4777412 -1.3422626 -1.3610988
4.4776549 -1.3424705 -1.3437108
4.4776387 -1.3426358 -1.3336476
4.4475336 -1.303462 -1.2490427
4.4231396 -1.2707255 -1.2337981
4.4185071 -1.2645978 -1.2261326
4.4082646 -1.2509723 -1.2132918
4.3271942 -1.1414083 -1.2038753
4.3059011 -1.1109911 -1.2893538
4.2987552 -1.1005636 -1.3298386
4.2918758 -1.0910316 -1.3416159
4.2715073 -1.0632802 -1.3512907
4.2591224 -1.046465 -1.3539735
4.2161655 -0.98912048 -1.3109095
4.2119684 -0.98345113 -1.310254
4.204092 -0.97304237 -1.2966787
4.2114935 -0.98312759 -1.2931285
4.2201138 -0.99487853 -1.2887237
4.267755 -1.0608103 -1.2113116
4.2360945 -1.0213989 -1.0264974
4.2016683 -0.974527 -1.0410587
4.1786375 -0.94325697 -1.0461223
4.1499767 -0.90425801 -1.0569959
4.1311083 -0.878438 -1.071967
4.1255503 -0.87077665 -1.0793829
4.1064987 -0.84470117 -1.0947318
4.0992656 -0.8348465 -1.0981419
4.0343876 -0.74521184 -1.195428
4.0296569 -0.73857272 -1.2080579
4.0272536 -0.73529136 -1.2095574
4.0107551 -0.71283424 -1.2162403
3.9914949 -0.68682182 -1.2130625
3.9024272 -0.5651356 -1.2731934
3.9005353 -0.56221086 -1.2927111
3.9002807 -0.56168532 -1.3024145
3.8996601 -0.5605498 -1.3182507
3.8937836 -0.55133498 -1.385846
3.8833628 -0.53727639 -1.3832976
3.854867 -0.49908993 -1.362577
3.8506219 -0.49356031 -1.350961
3.8342984 -0.47207791 -1.3180252
3.8269334 -0.46232742 -1.3062853
3.818969 -0.45175454 -1.295122
3.8122993 -0.44296712 -1.2822068
3.8081055 -0.43752754 -1.2694775
3.8001578 -0.427322 -1.2398261
3.7705712 -0.38877094 -1.1594579
3.669904 -0.25134325 -1.22171
3.6237044 -0.19015163 -1.1495363
3.5959806 -0.15269622 -1.1456444
3.5914354 -0.14687675 -1.1277664
3.5432785 -0.082723774 -1.0723093
3.668776 -0.26816317 -0.23761496
3.6892838 -0.29259002 -0.41642034
3.7212143 -0.33250561 -0.59378099
3.7476089 -0.36801806 -0.60537022
3.773349 -0.4028326 -0.60689449
3.7860606 -0.4199416 -0.61214364
3.8268673 -0.47547257 -0.5963946
3.8699858 -0.53562891 -0.50041103
3.8689992 -0.53464913 -0.4813216
3.8703384 -0.53658104 -0.47492814
3.8873918 -0.5630151 -0.29525441
3.8398666 -0.49928263 -0.2631025
3.8206699 -0.47318253 -0.26924518
3.7714894 -0.40750968 -0.22099651
3.7541168 -0.38396907 -0.22229706
3.7446859 -0.37123078 -0.22081143
3.7188642 -0.33621085 -0.2244036
3.7162521 -0.3326475 -0.22586496
3.6988862 -0.30902359 -0.23212768
3.6543546 -0.24871896 -0.233468
3.6384146 -0.22712651 -0.23430943
3.6125002 -0.19239695 -0.2155818
3.5930834 -0.16627313 -0.20701951
3.5810075 -0.14994422 -0.20608662
3.5692184 -0.13399078 -0.20583001
3.5148721 -0.058800213 -0.29302883
3.5160005 -0.059424475 -0.34146482
3.5524278 -0.10668892 -0.45115179
3.5942333 -0.16299385 -0.46641535
4.462389 -1.3311545 -0.84225595
4.3763671 -1.2155696 -0.79626501
4.3671227 -1.2037007 -0.7616694
4.3812623 -1.2246958 -0.66218644
4.4714904 -1.3484755 -0.57400298
4.5046835 -1.3904773 -0.73113108
4.4997625 -1.3833333 -0.75703061
1.5809743 2.5730617 -1.0475419
1.5257518 2.6467571 -0.99090624
1.5145898 2.6594746 -0.86260122
1.4455912 2.7511163 -0.76835442
1.4419343 2.7551556 -0.7195133
1.4439256 2.7520294 -0.69639218
1.4446793 2.7506995 -0.67978853
1.5196569 2.6473541 -0.58039147
1.5556285 2.5986426 -0.57937956
1.5918723 2.5495648 -0.57847553
1.6359034 2.4899297 -0.57669634
1.6720322 2.4410052 -0.57568336
1.713585 2.3878827 -0.74328625
1.7375541 2.3567696 -0.81474483
1.7494191 2.3417666 -0.87149966
1.7045473 2.4043951 -0.97278357
1.7392488 2.3599534 -1.1085711
1.7373357 2.3636584 -1.1684036
1.7247263 2.3823695 -1.2565016
1.6644088 2.4646945 -1.2928121
1.6498046 2.4844484 -1.2920198
1.6443858 2.491785 -1.2921062
1.6046795 2.5452616 -1.2775481
1.5580959 2.6064174 -1.1755674
1.5720959 2.5858629 -1.0895368
1.5833471 2.5701377 -1.0629811
1.4445097 2.7394853 -0.06594348
1.4445574 2.7393153 -0.060304254
1.4442315 2.7372174 0.075887144
1.4101017 2.7856348 -0.043073028
1.3276937 2.8952625 0.060064942
1.4438527 2.7429163 -0.20229472
1.4448421 2.7422891 -0.24048804
1.4436722 2.7446458 -0.28195953
1.4436111 2.7453058 -0.31290933
1.4432733 2.7467246 -0.36449918
1.5068278 2.6633298 -0.5058279
1.5182111 2.6479499 -0.50737751
1.5348988 2.6253133 -0.50482726
1.5550323 2.5981505 -0.509691
1.5938309 2.545357 -0.49497873
1.5967731 2.5413818 -0.49538526
1.6278278 2.4995575 -0.50676525
1.6348562 2.490027 -0.50588292
1.6474957 2.4729185 -0.50593454
1.6768601 2.4330177 -0.49777591
1.6848133 2.4221227 -0.49083871
1.7631723 2.3142622 -0.39477223
1.7547982 2.3242528 -0.32264301
1.7522364 2.3275015 -0.31088799
1.7442532 2.3371124 -0.24676484
1.7408041 2.3399196 -0.14691068
1.7539568 2.320224 -0.045452714
1.7520291 2.3221734 -0.010038942
1.7554446 2.3165736 0.042330593
1.7475812 2.3260543 0.10473114
1.6972853 2.3914254 0.25017086
1.67633 2.4198179 0.24874261
1.6356081 2.4750826 0.24112043
1.6113554 2.5078578 0.24403092
1.6016607 2.5209916 0.24344715
1.5503201 2.5908866 0.22207627
1.520144 2.6315458 0.23217925
1.4454486 2.7348535 0.11431074
1.4458783 2.7349 0.080627352
1.4449813 2.7407668 -0.16893563
1.4446948 2.7399638 -0.10506055
1.441185 2.7408667 0.10134465
1.3324139 2.8881299 0.099920243
1.3269336 2.8950241 0.12804568
1.3915551 2.8052299 0.25248292
1.4422908 2.7378852 0.18098459
3.8415082 -0.49077049 -0.83886957
3.8922062 -0.55769086 -0.93039334
3.9745955 -0.67088604 -0.84083509
3.9753284 -0.67231166 -0.8175745
3.9753487 -0.67238116 -0.81531274
3.9067619 -0.58180082 -0.69401705
1.4410763 2.736918 0.32104257
1.4110794 2.7768517 0.357061
1.4397829 2.7348287 0.52702761
1.5057385 2.6461933 0.492452
1.5098641 2.6436949 0.32691059
